NCOLS 250
NROWS 25
XLLCORNER -83.2270866667
YLLCORNER 29.16208
CELLSIZE 0.000833333333333333 
NODATA_value 0 
4.09999990463257 4.30000019073486 4.5 4.40000009536743 4.30000019073486 4.09999990463257 4.09999990463257 4.09999990463257 4.19999980926514 4.19999980926514 4.19999980926514 4.19999980926514 4.19999980926514 4.19999980926514 4.19999980926514 4.19999980926514 4.19999980926514 4.19999980926514 4.19999980926514 4.19999980926514 4.19999980926514 4.19999980926514 4.19999980926514 4.19999980926514 4.19999980926514 4.19999980926514 4.19999980926514 4.19999980926514 4.19999980926514 4.19999980926514 4.09999990463257 4.09999990463257 4.09999990463257 4.09999990463257 4.09999990463257 4.09999990463257 4.09999990463257 4.09999990463257 4.09999990463257 4.09999990463257 4 4 4 4 4 4 4 4 4 4 4 4 4 4 3.90000009536743 3.90000009536743 3.90000009536743 3.90000009536743 3.90000009536743 3.90000009536743 3.90000009536743 3.90000009536743 3.90000009536743 3.90000009536743 3.79999995231628 3.79999995231628 3.79999995231628 3.79999995231628 3.79999995231628 3.79999995231628 3.70000004768372 3.70000004768372 3.70000004768372 3.70000004768372 3.70000004768372 3.59999990463257 3.59999990463257 3.59999990463257 3.59999990463257 3.5 3.5 3.5 3.40000009536743 3.40000009536743 3.40000009536743 3.29999995231628 3.29999995231628 3.29999995231628 3.20000004768372 3.20000004768372 3.20000004768372 3.09999990463257 3.09999990463257 3.09999990463257 3 3 2.90000009536743 2.90000009536743 2.90000009536743 2.79999995231628 2.79999995231628 2.70000004768372 2.70000004768372 2.70000004768372 2.59999990463257 2.59999990463257 2.59999990463257 2.5 2.5 2.40000009536743 2.40000009536743 2.40000009536743 2.29999995231628 2.29999995231628 2.20000004768372 2.20000004768372 2.09999990463257 2.09999990463257 2.09999990463257 2 2 1.89999997615814 1.89999997615814 1.89999997615814 1.79999995231628 1.79999995231628 1.70000004768372 1.70000004768372 1.70000004768372 1.60000002384186 1.60000002384186 1.5 1.5 1.5 1.39999997615814 1.39999997615814 1.29999995231628 1.29999995231628 1.29999995231628 1.20000004768372 1.20000004768372 1.10000002384186 1.10000002384186 1.10000002384186 1 1 0.899999976158142 0.899999976158142 0.899999976158142 0.800000011920929 0.800000011920929 0.800000011920929 0.699999988079071 0.699999988079071 0.600000023841858 0.600000023841858 0.600000023841858 0.5 0.5 0.5 0.400000005960464 0.400000005960464 0.400000005960464 0.300000011920929 0.300000011920929 0.300000011920929 0.200000002980232 0.200000002980232 0.200000002980232 0.200000002980232 0.100000001490116 0.100000001490116 0.100000001490116 0.100000001490116 0.100000001490116 0.100000001490116 0.100000001490116 0.100000001490116 0.100000001490116 0.100000001490116 0.100000001490116 0.100000001490116 0.100000001490116 0.100000001490116 0.100000001490116 0.100000001490116 0.100000001490116 0.100000001490116 0.100000001490116 0.100000001490116 0.100000001490116 0.100000001490116 0.100000001490116 0.100000001490116 0.100000001490116 0.100000001490116 0.100000001490116 0.100000001490116 0.100000001490116 0.100000001490116 0.100000001490116 0.100000001490116 0.100000001490116 0.100000001490116 0.100000001490116 0.100000001490116 0.100000001490116 0.100000001490116 0.100000001490116 0.100000001490116 0.100000001490116 0.100000001490116 0.100000001490116 0.100000001490116 0.100000001490116 0.100000001490116 0.100000001490116 0.100000001490116 0.100000001490116 0.100000001490116 0.100000001490116 0.100000001490116 0.100000001490116 0.100000001490116 0 0 0 0 0 0 0 0 0 0 0 0 0 0 0 0 0 0 0 0 0 0 0 0 0 0
4.5 4.5 4.5 4.59999990463257 4.30000019073486 4.09999990463257 4 4.09999990463257 4.19999980926514 4.19999980926514 4.30000019073486 4.30000019073486 4.30000019073486 4.30000019073486 4.30000019073486 4.30000019073486 4.30000019073486 4.19999980926514 4.19999980926514 4.19999980926514 4.19999980926514 4.19999980926514 4.19999980926514 4.19999980926514 4.19999980926514 4.19999980926514 4.19999980926514 4.19999980926514 4.19999980926514 4.19999980926514 4.19999980926514 4.19999980926514 4.19999980926514 4.09999990463257 4.09999990463257 4.09999990463257 4.09999990463257 4.09999990463257 4.09999990463257 4.09999990463257 4.09999990463257 4.09999990463257 4.09999990463257 4 4 4 4 4 4 4 4 4 4 4 4 4 4 4 3.90000009536743 3.90000009536743 3.90000009536743 3.90000009536743 3.90000009536743 3.90000009536743 3.90000009536743 3.90000009536743 3.90000009536743 3.79999995231628 3.79999995231628 3.79999995231628 3.79999995231628 3.79999995231628 3.70000004768372 3.70000004768372 3.70000004768372 3.70000004768372 3.70000004768372 3.59999990463257 3.59999990463257 3.59999990463257 3.5 3.5 3.5 3.5 3.40000009536743 3.40000009536743 3.29999995231628 3.29999995231628 3.29999995231628 3.20000004768372 3.20000004768372 3.20000004768372 3.09999990463257 3.09999990463257 3.09999990463257 3 3 2.90000009536743 2.90000009536743 2.90000009536743 2.79999995231628 2.79999995231628 2.70000004768372 2.70000004768372 2.70000004768372 2.59999990463257 2.59999990463257 2.5 2.5 2.5 2.40000009536743 2.40000009536743 2.29999995231628 2.29999995231628 2.29999995231628 2.20000004768372 2.20000004768372 2.09999990463257 2.09999990463257 2 2 2 1.89999997615814 1.89999997615814 1.79999995231628 1.79999995231628 1.79999995231628 1.70000004768372 1.70000004768372 1.60000002384186 1.60000002384186 1.60000002384186 1.5 1.5 1.39999997615814 1.39999997615814 1.39999997615814 1.29999995231628 1.29999995231628 1.20000004768372 1.20000004768372 1.20000004768372 1.10000002384186 1.10000002384186 1 1 1 0.899999976158142 0.899999976158142 0.800000011920929 0.800000011920929 0.800000011920929 0.699999988079071 0.699999988079071 0.699999988079071 0.600000023841858 0.600000023841858 0.5 0.5 0.5 0.400000005960464 0.400000005960464 0.400000005960464 0.300000011920929 0.300000011920929 0.300000011920929 0.200000002980232 0.200000002980232 0.200000002980232 0.200000002980232 0.200000002980232 0.100000001490116 0.100000001490116 0.100000001490116 0.100000001490116 0.100000001490116 0.100000001490116 0.100000001490116 0.100000001490116 0.100000001490116 0.100000001490116 0.100000001490116 0.100000001490116 0.100000001490116 0.100000001490116 0.100000001490116 0.100000001490116 0.100000001490116 0.100000001490116 0.100000001490116 0.100000001490116 0.100000001490116 0.100000001490116 0.100000001490116 0.100000001490116 0.100000001490116 0.100000001490116 0.100000001490116 0.100000001490116 0.100000001490116 0.100000001490116 0.100000001490116 0.100000001490116 0.100000001490116 0.100000001490116 0.100000001490116 0.100000001490116 0.100000001490116 0.100000001490116 0.100000001490116 0.100000001490116 0.100000001490116 0.100000001490116 0.100000001490116 0.100000001490116 0.100000001490116 0.100000001490116 0.100000001490116 0.100000001490116 0.100000001490116 0.100000001490116 0.100000001490116 0.100000001490116 0.100000001490116 0 0 0 0 0 0 0 0 0 0 0 0 0 0 0 0 0 0 0 0 0 0 0 0 0 0
4.40000009536743 4.40000009536743 4.30000019073486 4.30000019073486 4.19999980926514 4 4 4.19999980926514 4.30000019073486 4.30000019073486 4.30000019073486 4.30000019073486 4.30000019073486 4.30000019073486 4.30000019073486 4.30000019073486 4.30000019073486 4.30000019073486 4.30000019073486 4.30000019073486 4.30000019073486 4.30000019073486 4.30000019073486 4.30000019073486 4.30000019073486 4.19999980926514 4.19999980926514 4.19999980926514 4.19999980926514 4.19999980926514 4.19999980926514 4.19999980926514 4.19999980926514 4.19999980926514 4.19999980926514 4.09999990463257 4.09999990463257 4.09999990463257 4.09999990463257 4.09999990463257 4.09999990463257 4.09999990463257 4.09999990463257 4.09999990463257 4.09999990463257 4.09999990463257 4.09999990463257 4.09999990463257 4 4 4 4 4 4 4 4 4 4 4 4 4 4 3.90000009536743 3.90000009536743 3.90000009536743 3.90000009536743 3.90000009536743 3.90000009536743 3.90000009536743 3.79999995231628 3.79999995231628 3.79999995231628 3.79999995231628 3.79999995231628 3.70000004768372 3.70000004768372 3.70000004768372 3.70000004768372 3.59999990463257 3.59999990463257 3.59999990463257 3.59999990463257 3.5 3.5 3.5 3.40000009536743 3.40000009536743 3.40000009536743 3.29999995231628 3.29999995231628 3.20000004768372 3.20000004768372 3.20000004768372 3.09999990463257 3.09999990463257 3 3 3 2.90000009536743 2.90000009536743 2.79999995231628 2.79999995231628 2.79999995231628 2.70000004768372 2.70000004768372 2.59999990463257 2.59999990463257 2.59999990463257 2.5 2.5 2.40000009536743 2.40000009536743 2.40000009536743 2.29999995231628 2.29999995231628 2.20000004768372 2.20000004768372 2.20000004768372 2.09999990463257 2.09999990463257 2 2 1.89999997615814 1.89999997615814 1.89999997615814 1.79999995231628 1.79999995231628 1.70000004768372 1.70000004768372 1.70000004768372 1.60000002384186 1.60000002384186 1.5 1.5 1.5 1.39999997615814 1.39999997615814 1.29999995231628 1.29999995231628 1.20000004768372 1.20000004768372 1.20000004768372 1.10000002384186 1.10000002384186 1 1 1 0.899999976158142 0.899999976158142 0.899999976158142 0.800000011920929 0.800000011920929 0.699999988079071 0.699999988079071 0.699999988079071 0.600000023841858 0.600000023841858 0.5 0.5 0.5 0.400000005960464 0.400000005960464 0.400000005960464 0.300000011920929 0.300000011920929 0.300000011920929 0.300000011920929 0.200000002980232 0.200000002980232 0.200000002980232 0.200000002980232 0.100000001490116 0.100000001490116 0.100000001490116 0.100000001490116 0.100000001490116 0.100000001490116 0.100000001490116 0.100000001490116 0.100000001490116 0.100000001490116 0.100000001490116 0.100000001490116 0.100000001490116 0.100000001490116 0.100000001490116 0.100000001490116 0.100000001490116 0.100000001490116 0.100000001490116 0.100000001490116 0.100000001490116 0.100000001490116 0.100000001490116 0.100000001490116 0.100000001490116 0.100000001490116 0.100000001490116 0.100000001490116 0.100000001490116 0.100000001490116 0.100000001490116 0.100000001490116 0.100000001490116 0.100000001490116 0.100000001490116 0.100000001490116 0.100000001490116 0.100000001490116 0.100000001490116 0.100000001490116 0.100000001490116 0.100000001490116 0.100000001490116 0.100000001490116 0.100000001490116 0.100000001490116 0.100000001490116 0.100000001490116 0.100000001490116 0.100000001490116 0.100000001490116 0.100000001490116 0.100000001490116 0.100000001490116 0 0 0 0 0 0 0 0 0 0 0 0 0 0 0 0 0 0 0 0 0 0 0 0 0
4.19999980926514 3.90000009536743 3.90000009536743 4.09999990463257 4.19999980926514 4.30000019073486 4.5 4.5 4.5 4.40000009536743 4.40000009536743 4.30000019073486 4.30000019073486 4.30000019073486 4.30000019073486 4.30000019073486 4.30000019073486 4.30000019073486 4.30000019073486 4.30000019073486 4.30000019073486 4.30000019073486 4.30000019073486 4.30000019073486 4.30000019073486 4.30000019073486 4.30000019073486 4.30000019073486 4.30000019073486 4.19999980926514 4.19999980926514 4.19999980926514 4.19999980926514 4.19999980926514 4.19999980926514 4.19999980926514 4.19999980926514 4.19999980926514 4.09999990463257 4.09999990463257 4.09999990463257 4.09999990463257 4.09999990463257 4.09999990463257 4.09999990463257 4.09999990463257 4.09999990463257 4.09999990463257 4.09999990463257 4.09999990463257 4.09999990463257 4.09999990463257 4.09999990463257 4.09999990463257 4.09999990463257 4 4 4 4 4 4 4 4 4 4 4 3.90000009536743 3.90000009536743 3.90000009536743 3.90000009536743 3.90000009536743 3.90000009536743 3.79999995231628 3.79999995231628 3.79999995231628 3.79999995231628 3.70000004768372 3.70000004768372 3.70000004768372 3.70000004768372 3.59999990463257 3.59999990463257 3.59999990463257 3.5 3.5 3.5 3.40000009536743 3.40000009536743 3.40000009536743 3.29999995231628 3.29999995231628 3.20000004768372 3.20000004768372 3.20000004768372 3.09999990463257 3.09999990463257 3 3 3 2.90000009536743 2.90000009536743 2.79999995231628 2.79999995231628 2.79999995231628 2.70000004768372 2.70000004768372 2.59999990463257 2.59999990463257 2.5 2.5 2.5 2.40000009536743 2.40000009536743 2.29999995231628 2.29999995231628 2.29999995231628 2.20000004768372 2.20000004768372 2.09999990463257 2.09999990463257 2.09999990463257 2 2 1.89999997615814 1.89999997615814 1.79999995231628 1.79999995231628 1.79999995231628 1.70000004768372 1.70000004768372 1.60000002384186 1.60000002384186 1.60000002384186 1.5 1.5 1.39999997615814 1.39999997615814 1.29999995231628 1.29999995231628 1.29999995231628 1.20000004768372 1.20000004768372 1.10000002384186 1.10000002384186 1.10000002384186 1 1 0.899999976158142 0.899999976158142 0.899999976158142 0.800000011920929 0.800000011920929 0.699999988079071 0.699999988079071 0.699999988079071 0.600000023841858 0.600000023841858 0.600000023841858 0.5 0.5 0.5 0.400000005960464 0.400000005960464 0.400000005960464 0.300000011920929 0.300000011920929 0.300000011920929 0.200000002980232 0.200000002980232 0.200000002980232 0.200000002980232 0.200000002980232 0.100000001490116 0.100000001490116 0.100000001490116 0.100000001490116 0.100000001490116 0.100000001490116 0.100000001490116 0.100000001490116 0.100000001490116 0.100000001490116 0.100000001490116 0.100000001490116 0.100000001490116 0.100000001490116 0.100000001490116 0.100000001490116 0.100000001490116 0.100000001490116 0.100000001490116 0.100000001490116 0.100000001490116 0.100000001490116 0.100000001490116 0.100000001490116 0.100000001490116 0.100000001490116 0.100000001490116 0.100000001490116 0.100000001490116 0.100000001490116 0.100000001490116 0.100000001490116 0.100000001490116 0.100000001490116 0.100000001490116 0.100000001490116 0.100000001490116 0.100000001490116 0.100000001490116 0.100000001490116 0.100000001490116 0.100000001490116 0.100000001490116 0.100000001490116 0.100000001490116 0.100000001490116 0.100000001490116 0.100000001490116 0.100000001490116 0.100000001490116 0.100000001490116 0.100000001490116 0.100000001490116 0.100000001490116 0.100000001490116 0 0 0 0 0 0 0 0 0 0 0 0 0 0 0 0 0 0 0 0 0 0 0
4 4.09999990463257 4.30000019073486 4.5 4.69999980926514 5 4.90000009536743 4.69999980926514 4.59999990463257 4.5 4.40000009536743 4.40000009536743 4.30000019073486 4.30000019073486 4.30000019073486 4.30000019073486 4.30000019073486 4.30000019073486 4.30000019073486 4.30000019073486 4.30000019073486 4.30000019073486 4.30000019073486 4.30000019073486 4.30000019073486 4.30000019073486 4.30000019073486 4.30000019073486 4.30000019073486 4.30000019073486 4.30000019073486 4.30000019073486 4.19999980926514 4.19999980926514 4.19999980926514 4.19999980926514 4.19999980926514 4.19999980926514 4.19999980926514 4.19999980926514 4.09999990463257 4.09999990463257 4.09999990463257 4.09999990463257 4.09999990463257 4.09999990463257 4.09999990463257 4.09999990463257 4.09999990463257 4.09999990463257 4.09999990463257 4.09999990463257 4.09999990463257 4.09999990463257 4.09999990463257 4.09999990463257 4.09999990463257 4.09999990463257 4.09999990463257 4.09999990463257 4.09999990463257 4 4 4 4 4 4 4 4 3.90000009536743 3.90000009536743 3.90000009536743 3.90000009536743 3.90000009536743 3.79999995231628 3.79999995231628 3.79999995231628 3.79999995231628 3.70000004768372 3.70000004768372 3.70000004768372 3.59999990463257 3.59999990463257 3.59999990463257 3.5 3.5 3.5 3.40000009536743 3.40000009536743 3.40000009536743 3.29999995231628 3.29999995231628 3.20000004768372 3.20000004768372 3.20000004768372 3.09999990463257 3.09999990463257 3 3 3 2.90000009536743 2.90000009536743 2.79999995231628 2.79999995231628 2.70000004768372 2.70000004768372 2.70000004768372 2.59999990463257 2.59999990463257 2.5 2.5 2.40000009536743 2.40000009536743 2.40000009536743 2.29999995231628 2.29999995231628 2.20000004768372 2.20000004768372 2.20000004768372 2.09999990463257 2.09999990463257 2 2 1.89999997615814 1.89999997615814 1.89999997615814 1.79999995231628 1.79999995231628 1.70000004768372 1.70000004768372 1.70000004768372 1.60000002384186 1.60000002384186 1.5 1.5 1.39999997615814 1.39999997615814 1.39999997615814 1.29999995231628 1.29999995231628 1.20000004768372 1.20000004768372 1.20000004768372 1.10000002384186 1.10000002384186 1 1 1 0.899999976158142 0.899999976158142 0.800000011920929 0.800000011920929 0.800000011920929 0.699999988079071 0.699999988079071 0.600000023841858 0.600000023841858 0.600000023841858 0.5 0.5 0.5 0.400000005960464 0.400000005960464 0.400000005960464 0.300000011920929 0.300000011920929 0.300000011920929 0.300000011920929 0.200000002980232 0.200000002980232 0.200000002980232 0.200000002980232 0.100000001490116 0.100000001490116 0.100000001490116 0.100000001490116 0.100000001490116 0.100000001490116 0.100000001490116 0.100000001490116 0.100000001490116 0.100000001490116 0.100000001490116 0.100000001490116 0.100000001490116 0.100000001490116 0.100000001490116 0.100000001490116 0.100000001490116 0.100000001490116 0.100000001490116 0.100000001490116 0.100000001490116 0.100000001490116 0.100000001490116 0.100000001490116 0.100000001490116 0.100000001490116 0.100000001490116 0.100000001490116 0.100000001490116 0.100000001490116 0.100000001490116 0.100000001490116 0.100000001490116 0.100000001490116 0.100000001490116 0.100000001490116 0.100000001490116 0.100000001490116 0.100000001490116 0.100000001490116 0.100000001490116 0.100000001490116 0.100000001490116 0.100000001490116 0.100000001490116 0.100000001490116 0.100000001490116 0.100000001490116 0.100000001490116 0.100000001490116 0.100000001490116 0.100000001490116 0.100000001490116 0.100000001490116 0.100000001490116 0.100000001490116 0 0 0 0 0 0 0 0 0 0 0 0 0 0 0 0 0 0 0 0 0 0
4.5 4.59999990463257 4.69999980926514 4.80000019073486 4.80000019073486 4.90000009536743 4.80000019073486 4.69999980926514 4.59999990463257 4.5 4.40000009536743 4.30000019073486 4.30000019073486 4.30000019073486 4.30000019073486 4.40000009536743 4.40000009536743 4.40000009536743 4.40000009536743 4.40000009536743 4.40000009536743 4.40000009536743 4.40000009536743 4.40000009536743 4.40000009536743 4.30000019073486 4.30000019073486 4.30000019073486 4.30000019073486 4.30000019073486 4.30000019073486 4.30000019073486 4.30000019073486 4.30000019073486 4.19999980926514 4.19999980926514 4.19999980926514 4.19999980926514 4.19999980926514 4.19999980926514 4.19999980926514 4.19999980926514 4.19999980926514 4.19999980926514 4.09999990463257 4.09999990463257 4.09999990463257 4.09999990463257 4.09999990463257 4.09999990463257 4.09999990463257 4.09999990463257 4.09999990463257 4.09999990463257 4.09999990463257 4.09999990463257 4.09999990463257 4.09999990463257 4.09999990463257 4.09999990463257 4.09999990463257 4.09999990463257 4.09999990463257 4.09999990463257 4.09999990463257 4 4 4 4 4 4 3.90000009536743 3.90000009536743 3.90000009536743 3.90000009536743 3.90000009536743 3.79999995231628 3.79999995231628 3.79999995231628 3.70000004768372 3.70000004768372 3.70000004768372 3.70000004768372 3.59999990463257 3.59999990463257 3.5 3.5 3.5 3.40000009536743 3.40000009536743 3.40000009536743 3.29999995231628 3.29999995231628 3.20000004768372 3.20000004768372 3.09999990463257 3.09999990463257 3.09999990463257 3 3 2.90000009536743 2.90000009536743 2.90000009536743 2.79999995231628 2.79999995231628 2.70000004768372 2.70000004768372 2.59999990463257 2.59999990463257 2.59999990463257 2.5 2.5 2.40000009536743 2.40000009536743 2.29999995231628 2.29999995231628 2.29999995231628 2.20000004768372 2.20000004768372 2.09999990463257 2.09999990463257 2.09999990463257 2 2 1.89999997615814 1.89999997615814 1.79999995231628 1.79999995231628 1.79999995231628 1.70000004768372 1.70000004768372 1.60000002384186 1.60000002384186 1.5 1.5 1.5 1.39999997615814 1.39999997615814 1.29999995231628 1.29999995231628 1.29999995231628 1.20000004768372 1.20000004768372 1.10000002384186 1.10000002384186 1 1 1 0.899999976158142 0.899999976158142 0.800000011920929 0.800000011920929 0.800000011920929 0.699999988079071 0.699999988079071 0.699999988079071 0.600000023841858 0.600000023841858 0.5 0.5 0.5 0.400000005960464 0.400000005960464 0.400000005960464 0.300000011920929 0.300000011920929 0.300000011920929 0.300000011920929 0.200000002980232 0.200000002980232 0.200000002980232 0.200000002980232 0.100000001490116 0.100000001490116 0.100000001490116 0.100000001490116 0.100000001490116 0.100000001490116 0.100000001490116 0.100000001490116 0.100000001490116 0.100000001490116 0.100000001490116 0.100000001490116 0.100000001490116 0.100000001490116 0.100000001490116 0.100000001490116 0.100000001490116 0.100000001490116 0.100000001490116 0.100000001490116 0.100000001490116 0.100000001490116 0.100000001490116 0.100000001490116 0.100000001490116 0.100000001490116 0.100000001490116 0.100000001490116 0.100000001490116 0.100000001490116 0.100000001490116 0.100000001490116 0.100000001490116 0.100000001490116 0.100000001490116 0.100000001490116 0.100000001490116 0.100000001490116 0.100000001490116 0.100000001490116 0.100000001490116 0.100000001490116 0.100000001490116 0.100000001490116 0.100000001490116 0.100000001490116 0.100000001490116 0.100000001490116 0.100000001490116 0.100000001490116 0.100000001490116 0.100000001490116 0.100000001490116 0.100000001490116 0.100000001490116 0.100000001490116 0.100000001490116 0 0 0 0 0 0 0 0 0 0 0 0 0 0 0 0 0 0 0 0 0
5 5 4.90000009536743 4.90000009536743 4.80000019073486 4.69999980926514 4.59999990463257 4.5 4.40000009536743 4.40000009536743 4.40000009536743 4.30000019073486 4.30000019073486 4.30000019073486 4.40000009536743 4.40000009536743 4.40000009536743 4.40000009536743 4.40000009536743 4.40000009536743 4.40000009536743 4.40000009536743 4.40000009536743 4.40000009536743 4.40000009536743 4.40000009536743 4.40000009536743 4.40000009536743 4.40000009536743 4.30000019073486 4.30000019073486 4.30000019073486 4.30000019073486 4.30000019073486 4.30000019073486 4.30000019073486 4.19999980926514 4.19999980926514 4.19999980926514 4.19999980926514 4.19999980926514 4.19999980926514 4.19999980926514 4.19999980926514 4.19999980926514 4.19999980926514 4.19999980926514 4.19999980926514 4.19999980926514 4.19999980926514 4.19999980926514 4.19999980926514 4.19999980926514 4.19999980926514 4.19999980926514 4.19999980926514 4.19999980926514 4.19999980926514 4.19999980926514 4.09999990463257 4.09999990463257 4.09999990463257 4.09999990463257 4.09999990463257 4.09999990463257 4.09999990463257 4.09999990463257 4.09999990463257 4 4 4 4 4 4 3.90000009536743 3.90000009536743 3.90000009536743 3.90000009536743 3.79999995231628 3.79999995231628 3.79999995231628 3.70000004768372 3.70000004768372 3.70000004768372 3.59999990463257 3.59999990463257 3.5 3.5 3.5 3.40000009536743 3.40000009536743 3.29999995231628 3.29999995231628 3.29999995231628 3.20000004768372 3.20000004768372 3.09999990463257 3.09999990463257 3.09999990463257 3 3 2.90000009536743 2.90000009536743 2.79999995231628 2.79999995231628 2.79999995231628 2.70000004768372 2.70000004768372 2.59999990463257 2.59999990463257 2.5 2.5 2.5 2.40000009536743 2.40000009536743 2.29999995231628 2.29999995231628 2.20000004768372 2.20000004768372 2.20000004768372 2.09999990463257 2.09999990463257 2 2 1.89999997615814 1.89999997615814 1.89999997615814 1.79999995231628 1.79999995231628 1.70000004768372 1.70000004768372 1.60000002384186 1.60000002384186 1.60000002384186 1.5 1.5 1.39999997615814 1.39999997615814 1.29999995231628 1.29999995231628 1.29999995231628 1.20000004768372 1.20000004768372 1.10000002384186 1.10000002384186 1.10000002384186 1 1 0.899999976158142 0.899999976158142 0.899999976158142 0.800000011920929 0.800000011920929 0.699999988079071 0.699999988079071 0.699999988079071 0.600000023841858 0.600000023841858 0.600000023841858 0.5 0.5 0.400000005960464 0.400000005960464 0.400000005960464 0.400000005960464 0.300000011920929 0.300000011920929 0.300000011920929 0.200000002980232 0.200000002980232 0.200000002980232 0.200000002980232 0.200000002980232 0.100000001490116 0.100000001490116 0.100000001490116 0.100000001490116 0.100000001490116 0.100000001490116 0.100000001490116 0.100000001490116 0.100000001490116 0.100000001490116 0.100000001490116 0.100000001490116 0.100000001490116 0.100000001490116 0.100000001490116 0.100000001490116 0.100000001490116 0.100000001490116 0.100000001490116 0.100000001490116 0.100000001490116 0.100000001490116 0.100000001490116 0.100000001490116 0.100000001490116 0.100000001490116 0.100000001490116 0.100000001490116 0.100000001490116 0.100000001490116 0.100000001490116 0.100000001490116 0.100000001490116 0.100000001490116 0.100000001490116 0.100000001490116 0.100000001490116 0.100000001490116 0.100000001490116 0.100000001490116 0.100000001490116 0.100000001490116 0.100000001490116 0.100000001490116 0.100000001490116 0.100000001490116 0.100000001490116 0.100000001490116 0.100000001490116 0.100000001490116 0.100000001490116 0.100000001490116 0.100000001490116 0.100000001490116 0.100000001490116 0.100000001490116 0.100000001490116 0.100000001490116 0 0 0 0 0 0 0 0 0 0 0 0 0 0 0 0 0 0 0
4.80000019073486 4.90000009536743 4.80000019073486 4.80000019073486 4.59999990463257 4.59999990463257 4.5 4.5 4.5 4.5 4.30000019073486 4.19999980926514 4.30000019073486 4.40000009536743 4.40000009536743 4.40000009536743 4.40000009536743 4.40000009536743 4.40000009536743 4.40000009536743 4.40000009536743 4.40000009536743 4.40000009536743 4.40000009536743 4.40000009536743 4.40000009536743 4.40000009536743 4.40000009536743 4.40000009536743 4.40000009536743 4.40000009536743 4.40000009536743 4.30000019073486 4.30000019073486 4.30000019073486 4.30000019073486 4.30000019073486 4.30000019073486 4.19999980926514 4.19999980926514 4.19999980926514 4.19999980926514 4.19999980926514 4.19999980926514 4.19999980926514 4.19999980926514 4.19999980926514 4.19999980926514 4.19999980926514 4.19999980926514 4.19999980926514 4.19999980926514 4.19999980926514 4.19999980926514 4.19999980926514 4.19999980926514 4.19999980926514 4.19999980926514 4.19999980926514 4.19999980926514 4.19999980926514 4.19999980926514 4.19999980926514 4.19999980926514 4.09999990463257 4.09999990463257 4.09999990463257 4.09999990463257 4.09999990463257 4.09999990463257 4.09999990463257 4 4 4 4 4 3.90000009536743 3.90000009536743 3.90000009536743 3.79999995231628 3.79999995231628 3.79999995231628 3.70000004768372 3.70000004768372 3.70000004768372 3.59999990463257 3.59999990463257 3.5 3.5 3.5 3.40000009536743 3.40000009536743 3.29999995231628 3.29999995231628 3.29999995231628 3.20000004768372 3.20000004768372 3.09999990463257 3.09999990463257 3 3 3 2.90000009536743 2.90000009536743 2.79999995231628 2.79999995231628 2.70000004768372 2.70000004768372 2.70000004768372 2.59999990463257 2.59999990463257 2.5 2.5 2.40000009536743 2.40000009536743 2.40000009536743 2.29999995231628 2.29999995231628 2.20000004768372 2.20000004768372 2.09999990463257 2.09999990463257 2 2 2 1.89999997615814 1.89999997615814 1.79999995231628 1.79999995231628 1.70000004768372 1.70000004768372 1.70000004768372 1.60000002384186 1.60000002384186 1.5 1.5 1.39999997615814 1.39999997615814 1.39999997615814 1.29999995231628 1.29999995231628 1.20000004768372 1.20000004768372 1.20000004768372 1.10000002384186 1.10000002384186 1 1 0.899999976158142 0.899999976158142 0.899999976158142 0.800000011920929 0.800000011920929 0.699999988079071 0.699999988079071 0.699999988079071 0.600000023841858 0.600000023841858 0.600000023841858 0.5 0.5 0.5 0.400000005960464 0.400000005960464 0.400000005960464 0.300000011920929 0.300000011920929 0.300000011920929 0.200000002980232 0.200000002980232 0.200000002980232 0.200000002980232 0.200000002980232 0.100000001490116 0.100000001490116 0.100000001490116 0.100000001490116 0.100000001490116 0.100000001490116 0.100000001490116 0.100000001490116 0.100000001490116 0.100000001490116 0.100000001490116 0.100000001490116 0.100000001490116 0.100000001490116 0.100000001490116 0.100000001490116 0.100000001490116 0.100000001490116 0.100000001490116 0.100000001490116 0.100000001490116 0.100000001490116 0.100000001490116 0.100000001490116 0.100000001490116 0.100000001490116 0.100000001490116 0.100000001490116 0.100000001490116 0.100000001490116 0.100000001490116 0.100000001490116 0.100000001490116 0.100000001490116 0.100000001490116 0.100000001490116 0.100000001490116 0.100000001490116 0.100000001490116 0.100000001490116 0.100000001490116 0.100000001490116 0.100000001490116 0.100000001490116 0.100000001490116 0.100000001490116 0.100000001490116 0.100000001490116 0.100000001490116 0.100000001490116 0.100000001490116 0.100000001490116 0.100000001490116 0.100000001490116 0.100000001490116 0.100000001490116 0.100000001490116 0.100000001490116 0.100000001490116 0 0 0 0 0 0 0 0 0 0 0 0 0 0 0 0 0 0
4.59999990463257 4.69999980926514 4.59999990463257 4.5 4.40000009536743 4.40000009536743 4.40000009536743 4.40000009536743 4.40000009536743 4.30000019073486 4.09999990463257 4.09999990463257 4.30000019073486 4.40000009536743 4.5 4.5 4.5 4.5 4.5 4.5 4.5 4.5 4.5 4.5 4.5 4.5 4.5 4.40000009536743 4.40000009536743 4.40000009536743 4.40000009536743 4.40000009536743 4.40000009536743 4.30000019073486 4.30000019073486 4.30000019073486 4.30000019073486 4.30000019073486 4.30000019073486 4.19999980926514 4.19999980926514 4.19999980926514 4.19999980926514 4.19999980926514 4.19999980926514 4.19999980926514 4.19999980926514 4.19999980926514 4.19999980926514 4.19999980926514 4.19999980926514 4.19999980926514 4.19999980926514 4.19999980926514 4.19999980926514 4.19999980926514 4.19999980926514 4.19999980926514 4.19999980926514 4.19999980926514 4.19999980926514 4.19999980926514 4.19999980926514 4.19999980926514 4.19999980926514 4.19999980926514 4.19999980926514 4.09999990463257 4.09999990463257 4.09999990463257 4.09999990463257 4.09999990463257 4.09999990463257 4 4 4 4 4 3.90000009536743 3.90000009536743 3.90000009536743 3.79999995231628 3.79999995231628 3.70000004768372 3.70000004768372 3.70000004768372 3.59999990463257 3.59999990463257 3.5 3.5 3.5 3.40000009536743 3.40000009536743 3.29999995231628 3.29999995231628 3.20000004768372 3.20000004768372 3.20000004768372 3.09999990463257 3.09999990463257 3 3 2.90000009536743 2.90000009536743 2.90000009536743 2.79999995231628 2.79999995231628 2.70000004768372 2.70000004768372 2.59999990463257 2.59999990463257 2.5 2.5 2.5 2.40000009536743 2.40000009536743 2.29999995231628 2.29999995231628 2.20000004768372 2.20000004768372 2.20000004768372 2.09999990463257 2.09999990463257 2 2 1.89999997615814 1.89999997615814 1.89999997615814 1.79999995231628 1.79999995231628 1.70000004768372 1.70000004768372 1.60000002384186 1.60000002384186 1.5 1.5 1.5 1.39999997615814 1.39999997615814 1.29999995231628 1.29999995231628 1.20000004768372 1.20000004768372 1.20000004768372 1.10000002384186 1.10000002384186 1 1 1 0.899999976158142 0.899999976158142 0.800000011920929 0.800000011920929 0.800000011920929 0.699999988079071 0.699999988079071 0.600000023841858 0.600000023841858 0.600000023841858 0.5 0.5 0.5 0.400000005960464 0.400000005960464 0.400000005960464 0.300000011920929 0.300000011920929 0.300000011920929 0.300000011920929 0.200000002980232 0.200000002980232 0.200000002980232 0.200000002980232 0.100000001490116 0.100000001490116 0.100000001490116 0.100000001490116 0.100000001490116 0.100000001490116 0.100000001490116 0.100000001490116 0.100000001490116 0.100000001490116 0.100000001490116 0.100000001490116 0.100000001490116 0.100000001490116 0.100000001490116 0.100000001490116 0.100000001490116 0.100000001490116 0.100000001490116 0.100000001490116 0.100000001490116 0.100000001490116 0.100000001490116 0.100000001490116 0.100000001490116 0.100000001490116 0.100000001490116 0.100000001490116 0.100000001490116 0.100000001490116 0.100000001490116 0.100000001490116 0.100000001490116 0.100000001490116 0.100000001490116 0.100000001490116 0.100000001490116 0.100000001490116 0.100000001490116 0.100000001490116 0.100000001490116 0.100000001490116 0.100000001490116 0.100000001490116 0.100000001490116 0.100000001490116 0.100000001490116 0.100000001490116 0.100000001490116 0.100000001490116 0.100000001490116 0.100000001490116 0.100000001490116 0.100000001490116 0.100000001490116 0.100000001490116 0.100000001490116 0.100000001490116 0.100000001490116 0.100000001490116 0.100000001490116 0 0 0 0 0 0 0 0 0 0 0 0 0 0 0 0
4.40000009536743 4.40000009536743 4.30000019073486 4.09999990463257 4.19999980926514 4.30000019073486 4.30000019073486 4.19999980926514 4.19999980926514 4.09999990463257 4.19999980926514 4.30000019073486 4.5 4.59999990463257 4.59999990463257 4.5 4.5 4.59999990463257 4.59999990463257 4.5 4.5 4.5 4.5 4.5 4.5 4.5 4.5 4.5 4.5 4.5 4.40000009536743 4.40000009536743 4.40000009536743 4.40000009536743 4.40000009536743 4.30000019073486 4.30000019073486 4.30000019073486 4.30000019073486 4.30000019073486 4.30000019073486 4.19999980926514 4.19999980926514 4.19999980926514 4.19999980926514 4.19999980926514 4.30000019073486 4.30000019073486 4.30000019073486 4.30000019073486 4.30000019073486 4.30000019073486 4.30000019073486 4.30000019073486 4.30000019073486 4.30000019073486 4.30000019073486 4.30000019073486 4.30000019073486 4.30000019073486 4.30000019073486 4.30000019073486 4.30000019073486 4.19999980926514 4.19999980926514 4.19999980926514 4.19999980926514 4.19999980926514 4.19999980926514 4.19999980926514 4.19999980926514 4.09999990463257 4.09999990463257 4.09999990463257 4.09999990463257 4.09999990463257 4 4 4 3.90000009536743 3.90000009536743 3.90000009536743 3.79999995231628 3.79999995231628 3.79999995231628 3.70000004768372 3.70000004768372 3.59999990463257 3.59999990463257 3.5 3.5 3.5 3.40000009536743 3.40000009536743 3.29999995231628 3.29999995231628 3.20000004768372 3.20000004768372 3.09999990463257 3.09999990463257 3.09999990463257 3 3 2.90000009536743 2.90000009536743 2.79999995231628 2.79999995231628 2.70000004768372 2.70000004768372 2.70000004768372 2.59999990463257 2.59999990463257 2.5 2.5 2.40000009536743 2.40000009536743 2.40000009536743 2.29999995231628 2.29999995231628 2.20000004768372 2.20000004768372 2.09999990463257 2.09999990463257 2 2 2 1.89999997615814 1.89999997615814 1.79999995231628 1.79999995231628 1.70000004768372 1.70000004768372 1.70000004768372 1.60000002384186 1.60000002384186 1.5 1.5 1.39999997615814 1.39999997615814 1.29999995231628 1.29999995231628 1.29999995231628 1.20000004768372 1.20000004768372 1.10000002384186 1.10000002384186 1.10000002384186 1 1 0.899999976158142 0.899999976158142 0.800000011920929 0.800000011920929 0.800000011920929 0.699999988079071 0.699999988079071 0.699999988079071 0.600000023841858 0.600000023841858 0.5 0.5 0.5 0.400000005960464 0.400000005960464 0.400000005960464 0.300000011920929 0.300000011920929 0.300000011920929 0.300000011920929 0.200000002980232 0.200000002980232 0.200000002980232 0.200000002980232 0.100000001490116 0.100000001490116 0.100000001490116 0.100000001490116 0.100000001490116 0.100000001490116 0.100000001490116 0.100000001490116 0.100000001490116 0.100000001490116 0.100000001490116 0.100000001490116 0.100000001490116 0.100000001490116 0.100000001490116 0.100000001490116 0.100000001490116 0.100000001490116 0.100000001490116 0.100000001490116 0.100000001490116 0.100000001490116 0.100000001490116 0.100000001490116 0.100000001490116 0.100000001490116 0.100000001490116 0.100000001490116 0.100000001490116 0.100000001490116 0.100000001490116 0.100000001490116 0.100000001490116 0.100000001490116 0.100000001490116 0.100000001490116 0.100000001490116 0.100000001490116 0.100000001490116 0.100000001490116 0.100000001490116 0.100000001490116 0.100000001490116 0.100000001490116 0.100000001490116 0.100000001490116 0.100000001490116 0.100000001490116 0.100000001490116 0.100000001490116 0.100000001490116 0.100000001490116 0.100000001490116 0.100000001490116 0.100000001490116 0.100000001490116 0.100000001490116 0.100000001490116 0.100000001490116 0.100000001490116 0.100000001490116 0.100000001490116 0 0 0 0 0 0 0 0 0 0 0 0 0 0 0
4.30000019073486 4.40000009536743 4.19999980926514 4.19999980926514 4.19999980926514 4.19999980926514 4.19999980926514 4.09999990463257 4.40000009536743 4.5 4.59999990463257 4.80000019073486 4.80000019073486 4.69999980926514 4.59999990463257 4.59999990463257 4.59999990463257 4.59999990463257 4.59999990463257 4.59999990463257 4.59999990463257 4.59999990463257 4.59999990463257 4.59999990463257 4.59999990463257 4.59999990463257 4.5 4.5 4.5 4.5 4.5 4.5 4.40000009536743 4.40000009536743 4.40000009536743 4.40000009536743 4.30000019073486 4.30000019073486 4.30000019073486 4.30000019073486 4.30000019073486 4.30000019073486 4.30000019073486 4.30000019073486 4.30000019073486 4.30000019073486 4.30000019073486 4.30000019073486 4.30000019073486 4.30000019073486 4.30000019073486 4.30000019073486 4.30000019073486 4.30000019073486 4.30000019073486 4.30000019073486 4.30000019073486 4.30000019073486 4.30000019073486 4.30000019073486 4.30000019073486 4.30000019073486 4.30000019073486 4.30000019073486 4.30000019073486 4.30000019073486 4.30000019073486 4.19999980926514 4.19999980926514 4.19999980926514 4.19999980926514 4.19999980926514 4.19999980926514 4.09999990463257 4.09999990463257 4.09999990463257 4.09999990463257 4.09999990463257 4 4 4 3.90000009536743 3.90000009536743 3.79999995231628 3.79999995231628 3.79999995231628 3.70000004768372 3.70000004768372 3.59999990463257 3.59999990463257 3.5 3.5 3.40000009536743 3.40000009536743 3.40000009536743 3.29999995231628 3.29999995231628 3.20000004768372 3.20000004768372 3.09999990463257 3.09999990463257 3 3 3 2.90000009536743 2.90000009536743 2.79999995231628 2.79999995231628 2.70000004768372 2.70000004768372 2.59999990463257 2.59999990463257 2.59999990463257 2.5 2.5 2.40000009536743 2.40000009536743 2.29999995231628 2.29999995231628 2.20000004768372 2.20000004768372 2.20000004768372 2.09999990463257 2.09999990463257 2 2 1.89999997615814 1.89999997615814 1.79999995231628 1.79999995231628 1.79999995231628 1.70000004768372 1.70000004768372 1.60000002384186 1.60000002384186 1.5 1.5 1.39999997615814 1.39999997615814 1.39999997615814 1.29999995231628 1.29999995231628 1.20000004768372 1.20000004768372 1.10000002384186 1.10000002384186 1.10000002384186 1 1 0.899999976158142 0.899999976158142 0.899999976158142 0.800000011920929 0.800000011920929 0.699999988079071 0.699999988079071 0.699999988079071 0.600000023841858 0.600000023841858 0.600000023841858 0.5 0.5 0.400000005960464 0.400000005960464 0.400000005960464 0.400000005960464 0.300000011920929 0.300000011920929 0.300000011920929 0.200000002980232 0.200000002980232 0.200000002980232 0.200000002980232 0.100000001490116 0.100000001490116 0.100000001490116 0.100000001490116 0.100000001490116 0.100000001490116 0.100000001490116 0.100000001490116 0.100000001490116 0.100000001490116 0.100000001490116 0.100000001490116 0.100000001490116 0.100000001490116 0.100000001490116 0.100000001490116 0.100000001490116 0.100000001490116 0.100000001490116 0.100000001490116 0.100000001490116 0.100000001490116 0.100000001490116 0.100000001490116 0.100000001490116 0.100000001490116 0.100000001490116 0.100000001490116 0.100000001490116 0.100000001490116 0.100000001490116 0.100000001490116 0.100000001490116 0.100000001490116 0.100000001490116 0.100000001490116 0.100000001490116 0.100000001490116 0.100000001490116 0.100000001490116 0.100000001490116 0.100000001490116 0.100000001490116 0.100000001490116 0.100000001490116 0.100000001490116 0.100000001490116 0.100000001490116 0.100000001490116 0.100000001490116 0.100000001490116 0.100000001490116 0.100000001490116 0.100000001490116 0.100000001490116 0.100000001490116 0.100000001490116 0.100000001490116 0.100000001490116 0.100000001490116 0.100000001490116 0.100000001490116 0.100000001490116 0.100000001490116 0.100000001490116 0 0 0 0 0 0 0 0 0 0 0 0
3.79999995231628 4 4.09999990463257 4.40000009536743 4.40000009536743 4.09999990463257 4.40000009536743 4.59999990463257 4.80000019073486 4.90000009536743 5 5.09999990463257 4.80000019073486 4.59999990463257 4.5 4.59999990463257 4.69999980926514 4.69999980926514 4.69999980926514 4.69999980926514 4.59999990463257 4.59999990463257 4.59999990463257 4.59999990463257 4.59999990463257 4.59999990463257 4.59999990463257 4.59999990463257 4.59999990463257 4.5 4.5 4.5 4.5 4.40000009536743 4.40000009536743 4.40000009536743 4.40000009536743 4.30000019073486 4.30000019073486 4.30000019073486 4.30000019073486 4.30000019073486 4.30000019073486 4.30000019073486 4.30000019073486 4.30000019073486 4.30000019073486 4.30000019073486 4.30000019073486 4.30000019073486 4.30000019073486 4.30000019073486 4.40000009536743 4.40000009536743 4.40000009536743 4.40000009536743 4.40000009536743 4.40000009536743 4.40000009536743 4.40000009536743 4.40000009536743 4.40000009536743 4.30000019073486 4.30000019073486 4.30000019073486 4.30000019073486 4.30000019073486 4.30000019073486 4.30000019073486 4.30000019073486 4.19999980926514 4.19999980926514 4.19999980926514 4.19999980926514 4.19999980926514 4.19999980926514 4.09999990463257 4.09999990463257 4.09999990463257 4 4 4 3.90000009536743 3.90000009536743 3.79999995231628 3.79999995231628 3.79999995231628 3.70000004768372 3.70000004768372 3.59999990463257 3.59999990463257 3.5 3.5 3.40000009536743 3.40000009536743 3.29999995231628 3.29999995231628 3.29999995231628 3.20000004768372 3.20000004768372 3.09999990463257 3.09999990463257 3 3 2.90000009536743 2.90000009536743 2.79999995231628 2.79999995231628 2.79999995231628 2.70000004768372 2.70000004768372 2.59999990463257 2.59999990463257 2.5 2.5 2.40000009536743 2.40000009536743 2.40000009536743 2.29999995231628 2.29999995231628 2.20000004768372 2.20000004768372 2.09999990463257 2.09999990463257 2 2 2 1.89999997615814 1.89999997615814 1.79999995231628 1.79999995231628 1.70000004768372 1.70000004768372 1.60000002384186 1.60000002384186 1.60000002384186 1.5 1.5 1.39999997615814 1.39999997615814 1.29999995231628 1.29999995231628 1.20000004768372 1.20000004768372 1.20000004768372 1.10000002384186 1.10000002384186 1 1 0.899999976158142 0.899999976158142 0.899999976158142 0.800000011920929 0.800000011920929 0.699999988079071 0.699999988079071 0.699999988079071 0.600000023841858 0.600000023841858 0.600000023841858 0.5 0.5 0.5 0.400000005960464 0.400000005960464 0.400000005960464 0.300000011920929 0.300000011920929 0.300000011920929 0.200000002980232 0.200000002980232 0.200000002980232 0.200000002980232 0.100000001490116 0.100000001490116 0.100000001490116 0.100000001490116 0.100000001490116 0.100000001490116 0.100000001490116 0.100000001490116 0.100000001490116 0.100000001490116 0.100000001490116 0.100000001490116 0.100000001490116 0.100000001490116 0.100000001490116 0.100000001490116 0.100000001490116 0.100000001490116 0.100000001490116 0.100000001490116 0.100000001490116 0.100000001490116 0.100000001490116 0.100000001490116 0.100000001490116 0.100000001490116 0.100000001490116 0.100000001490116 0.100000001490116 0.100000001490116 0.100000001490116 0.100000001490116 0.100000001490116 0.100000001490116 0.100000001490116 0.100000001490116 0.100000001490116 0.100000001490116 0.100000001490116 0.100000001490116 0.100000001490116 0.100000001490116 0.100000001490116 0.100000001490116 0.100000001490116 0.100000001490116 0.100000001490116 0.100000001490116 0.100000001490116 0.100000001490116 0.100000001490116 0.100000001490116 0.100000001490116 0.100000001490116 0.100000001490116 0.100000001490116 0.100000001490116 0.100000001490116 0.100000001490116 0.100000001490116 0.100000001490116 0.100000001490116 0.100000001490116 0.100000001490116 0.100000001490116 0.100000001490116 0.100000001490116 0.100000001490116 0 0 0 0 0 0 0 0 0
4.09999990463257 4.09999990463257 4.19999980926514 4.5 4.80000019073486 4.5 4.59999990463257 5 4.90000009536743 4.90000009536743 4.90000009536743 5 4.59999990463257 4.5 4.59999990463257 4.80000019073486 4.80000019073486 4.80000019073486 4.69999980926514 4.69999980926514 4.69999980926514 4.69999980926514 4.69999980926514 4.69999980926514 4.69999980926514 4.69999980926514 4.59999990463257 4.59999990463257 4.59999990463257 4.59999990463257 4.59999990463257 4.5 4.5 4.5 4.40000009536743 4.40000009536743 4.40000009536743 4.30000019073486 4.30000019073486 4.30000019073486 4.30000019073486 4.30000019073486 4.30000019073486 4.30000019073486 4.30000019073486 4.30000019073486 4.30000019073486 4.30000019073486 4.40000009536743 4.40000009536743 4.40000009536743 4.40000009536743 4.40000009536743 4.40000009536743 4.40000009536743 4.40000009536743 4.40000009536743 4.40000009536743 4.40000009536743 4.40000009536743 4.40000009536743 4.40000009536743 4.40000009536743 4.40000009536743 4.40000009536743 4.40000009536743 4.30000019073486 4.30000019073486 4.30000019073486 4.30000019073486 4.30000019073486 4.30000019073486 4.30000019073486 4.30000019073486 4.19999980926514 4.19999980926514 4.19999980926514 4.19999980926514 4.09999990463257 4.09999990463257 4.09999990463257 4 4 3.90000009536743 3.90000009536743 3.79999995231628 3.79999995231628 3.70000004768372 3.70000004768372 3.70000004768372 3.59999990463257 3.59999990463257 3.5 3.5 3.40000009536743 3.40000009536743 3.29999995231628 3.29999995231628 3.20000004768372 3.20000004768372 3.09999990463257 3.09999990463257 3.09999990463257 3 3 2.90000009536743 2.90000009536743 2.79999995231628 2.79999995231628 2.70000004768372 2.70000004768372 2.59999990463257 2.59999990463257 2.59999990463257 2.5 2.5 2.40000009536743 2.40000009536743 2.29999995231628 2.29999995231628 2.20000004768372 2.20000004768372 2.20000004768372 2.09999990463257 2.09999990463257 2 2 1.89999997615814 1.89999997615814 1.79999995231628 1.79999995231628 1.70000004768372 1.70000004768372 1.70000004768372 1.60000002384186 1.60000002384186 1.5 1.5 1.39999997615814 1.39999997615814 1.29999995231628 1.29999995231628 1.29999995231628 1.20000004768372 1.20000004768372 1.10000002384186 1.10000002384186 1 1 1 0.899999976158142 0.899999976158142 0.800000011920929 0.800000011920929 0.800000011920929 0.699999988079071 0.699999988079071 0.600000023841858 0.600000023841858 0.600000023841858 0.5 0.5 0.5 0.400000005960464 0.400000005960464 0.400000005960464 0.300000011920929 0.300000011920929 0.300000011920929 0.200000002980232 0.200000002980232 0.200000002980232 0.200000002980232 0.100000001490116 0.100000001490116 0.100000001490116 0.100000001490116 0.100000001490116 0.100000001490116 0.100000001490116 0.100000001490116 0.100000001490116 0.100000001490116 0.100000001490116 0.100000001490116 0.100000001490116 0.100000001490116 0.100000001490116 0.100000001490116 0.100000001490116 0.100000001490116 0.100000001490116 0.100000001490116 0.100000001490116 0.100000001490116 0.100000001490116 0.100000001490116 0.100000001490116 0.100000001490116 0.100000001490116 0.100000001490116 0.100000001490116 0.100000001490116 0.100000001490116 0.100000001490116 0.100000001490116 0.100000001490116 0.100000001490116 0.100000001490116 0.100000001490116 0.100000001490116 0.100000001490116 0.100000001490116 0.100000001490116 0.100000001490116 0.100000001490116 0.100000001490116 0.100000001490116 0.100000001490116 0.100000001490116 0.100000001490116 0.100000001490116 0.100000001490116 0.100000001490116 0.100000001490116 0.100000001490116 0.100000001490116 0.100000001490116 0.100000001490116 0.100000001490116 0.100000001490116 0.100000001490116 0.100000001490116 0.100000001490116 0.100000001490116 0.100000001490116 0.100000001490116 0.100000001490116 0.100000001490116 0.100000001490116 0.100000001490116 0.100000001490116 0.100000001490116 0.100000001490116 0.100000001490116 0.100000001490116 0.100000001490116 0.100000001490116 0.100000001490116 0.100000001490116
4.30000019073486 4.09999990463257 4.19999980926514 4.40000009536743 4.40000009536743 4.5 4.5 4.59999990463257 4.5 4.59999990463257 4.5 4.69999980926514 4.5 4.59999990463257 4.80000019073486 5 5 4.90000009536743 4.80000019073486 4.69999980926514 4.69999980926514 4.69999980926514 4.69999980926514 4.69999980926514 4.69999980926514 4.69999980926514 4.69999980926514 4.69999980926514 4.69999980926514 4.59999990463257 4.59999990463257 4.59999990463257 4.5 4.5 4.5 4.40000009536743 4.40000009536743 4.40000009536743 4.30000019073486 4.30000019073486 4.30000019073486 4.30000019073486 4.30000019073486 4.30000019073486 4.30000019073486 4.30000019073486 4.30000019073486 4.40000009536743 4.40000009536743 4.40000009536743 4.40000009536743 4.40000009536743 4.40000009536743 4.40000009536743 4.5 4.5 4.5 4.5 4.5 4.5 4.5 4.40000009536743 4.40000009536743 4.40000009536743 4.40000009536743 4.40000009536743 4.40000009536743 4.40000009536743 4.40000009536743 4.40000009536743 4.30000019073486 4.30000019073486 4.30000019073486 4.30000019073486 4.30000019073486 4.30000019073486 4.30000019073486 4.19999980926514 4.19999980926514 4.19999980926514 4.09999990463257 4.09999990463257 4 4 3.90000009536743 3.90000009536743 3.79999995231628 3.79999995231628 3.70000004768372 3.70000004768372 3.59999990463257 3.59999990463257 3.5 3.5 3.5 3.40000009536743 3.40000009536743 3.29999995231628 3.29999995231628 3.20000004768372 3.20000004768372 3.09999990463257 3.09999990463257 3 3 2.90000009536743 2.90000009536743 2.90000009536743 2.79999995231628 2.79999995231628 2.70000004768372 2.70000004768372 2.59999990463257 2.59999990463257 2.5 2.5 2.40000009536743 2.40000009536743 2.40000009536743 2.29999995231628 2.29999995231628 2.20000004768372 2.20000004768372 2.09999990463257 2.09999990463257 2 2 1.89999997615814 1.89999997615814 1.89999997615814 1.79999995231628 1.79999995231628 1.70000004768372 1.70000004768372 1.60000002384186 1.60000002384186 1.5 1.5 1.39999997615814 1.39999997615814 1.39999997615814 1.29999995231628 1.29999995231628 1.20000004768372 1.20000004768372 1.10000002384186 1.10000002384186 1.10000002384186 1 1 0.899999976158142 0.899999976158142 0.800000011920929 0.800000011920929 0.800000011920929 0.699999988079071 0.699999988079071 0.600000023841858 0.600000023841858 0.600000023841858 0.5 0.5 0.5 0.400000005960464 0.400000005960464 0.400000005960464 0.300000011920929 0.300000011920929 0.300000011920929 0.200000002980232 0.200000002980232 0.200000002980232 0.200000002980232 0.100000001490116 0.100000001490116 0.100000001490116 0.100000001490116 0.100000001490116 0.100000001490116 0.100000001490116 0.100000001490116 0.100000001490116 0.100000001490116 0.100000001490116 0.100000001490116 0.100000001490116 0.100000001490116 0.100000001490116 0.100000001490116 0.100000001490116 0.100000001490116 0.100000001490116 0.100000001490116 0.100000001490116 0.100000001490116 0.100000001490116 0.100000001490116 0.100000001490116 0.100000001490116 0.100000001490116 0.100000001490116 0.100000001490116 0.100000001490116 0.100000001490116 0.100000001490116 0.100000001490116 0.100000001490116 0.100000001490116 0.100000001490116 0.100000001490116 0.100000001490116 0.100000001490116 0.100000001490116 0.100000001490116 0.100000001490116 0.100000001490116 0.100000001490116 0.100000001490116 0.100000001490116 0.100000001490116 0.100000001490116 0.100000001490116 0.100000001490116 0.100000001490116 0.100000001490116 0.100000001490116 0.100000001490116 0.100000001490116 0.100000001490116 0.100000001490116 0.100000001490116 0.100000001490116 0.100000001490116 0.100000001490116 0.100000001490116 0.100000001490116 0.100000001490116 0.100000001490116 0.100000001490116 0.100000001490116 0.100000001490116 0.100000001490116 0.100000001490116 0.100000001490116 0.100000001490116 0.100000001490116 0.100000001490116 0.100000001490116 0.100000001490116 0.100000001490116
4.40000009536743 4.40000009536743 4.40000009536743 4.59999990463257 4.69999980926514 4.69999980926514 4.69999980926514 4.5 4.59999990463257 4.80000019073486 4.90000009536743 5 4.80000019073486 4.90000009536743 5.09999990463257 5.09999990463257 5.09999990463257 5 4.69999980926514 4.69999980926514 4.69999980926514 4.69999980926514 4.80000019073486 4.80000019073486 4.80000019073486 4.80000019073486 4.80000019073486 4.69999980926514 4.69999980926514 4.69999980926514 4.69999980926514 4.59999990463257 4.59999990463257 4.5 4.5 4.40000009536743 4.40000009536743 4.40000009536743 4.30000019073486 4.30000019073486 4.30000019073486 4.30000019073486 4.30000019073486 4.30000019073486 4.30000019073486 4.30000019073486 4.40000009536743 4.40000009536743 4.40000009536743 4.40000009536743 4.40000009536743 4.5 4.5 4.5 4.5 4.5 4.5 4.5 4.5 4.5 4.5 4.5 4.5 4.5 4.5 4.5 4.40000009536743 4.40000009536743 4.40000009536743 4.40000009536743 4.40000009536743 4.40000009536743 4.40000009536743 4.40000009536743 4.40000009536743 4.30000019073486 4.30000019073486 4.30000019073486 4.30000019073486 4.19999980926514 4.19999980926514 4.09999990463257 4.09999990463257 4 4 3.90000009536743 3.90000009536743 3.79999995231628 3.79999995231628 3.70000004768372 3.70000004768372 3.59999990463257 3.59999990463257 3.5 3.5 3.40000009536743 3.40000009536743 3.29999995231628 3.29999995231628 3.20000004768372 3.20000004768372 3.20000004768372 3.09999990463257 3.09999990463257 3 3 2.90000009536743 2.90000009536743 2.79999995231628 2.79999995231628 2.70000004768372 2.70000004768372 2.59999990463257 2.59999990463257 2.59999990463257 2.5 2.5 2.40000009536743 2.40000009536743 2.29999995231628 2.29999995231628 2.20000004768372 2.20000004768372 2.09999990463257 2.09999990463257 2.09999990463257 2 2 1.89999997615814 1.89999997615814 1.79999995231628 1.79999995231628 1.70000004768372 1.70000004768372 1.60000002384186 1.60000002384186 1.60000002384186 1.5 1.5 1.39999997615814 1.39999997615814 1.29999995231628 1.29999995231628 1.20000004768372 1.20000004768372 1.20000004768372 1.10000002384186 1.10000002384186 1 1 0.899999976158142 0.899999976158142 0.899999976158142 0.800000011920929 0.800000011920929 0.699999988079071 0.699999988079071 0.699999988079071 0.600000023841858 0.600000023841858 0.5 0.5 0.5 0.400000005960464 0.400000005960464 0.400000005960464 0.300000011920929 0.300000011920929 0.300000011920929 0.200000002980232 0.200000002980232 0.200000002980232 0.200000002980232 0.100000001490116 0.100000001490116 0.100000001490116 0.100000001490116 0.100000001490116 0.100000001490116 0.100000001490116 0.100000001490116 0.100000001490116 0.100000001490116 0.100000001490116 0.100000001490116 0.100000001490116 0.100000001490116 0.100000001490116 0.100000001490116 0.100000001490116 0.100000001490116 0.100000001490116 0.100000001490116 0.100000001490116 0.100000001490116 0.100000001490116 0.100000001490116 0.100000001490116 0.100000001490116 0.100000001490116 0.100000001490116 0.100000001490116 0.100000001490116 0.100000001490116 0.100000001490116 0.100000001490116 0.100000001490116 0.100000001490116 0.100000001490116 0.100000001490116 0.100000001490116 0.100000001490116 0.100000001490116 0.100000001490116 0.100000001490116 0.100000001490116 0.100000001490116 0.100000001490116 0.100000001490116 0.100000001490116 0.100000001490116 0.100000001490116 0.100000001490116 0.100000001490116 0.100000001490116 0.100000001490116 0.100000001490116 0.100000001490116 0.100000001490116 0.100000001490116 0.100000001490116 0.100000001490116 0.100000001490116 0.100000001490116 0.100000001490116 0.100000001490116 0.100000001490116 0.100000001490116 0.100000001490116 0.100000001490116 0.100000001490116 0.100000001490116 0.100000001490116 0.100000001490116 0.100000001490116 0.100000001490116 0.100000001490116 0.100000001490116 0.100000001490116 0.100000001490116
4.80000019073486 4.80000019073486 4.90000009536743 5 5.19999980926514 5.09999990463257 5.19999980926514 5.30000019073486 5.19999980926514 5.30000019073486 5.40000009536743 5.19999980926514 5 5 5.09999990463257 5.09999990463257 5 4.80000019073486 4.5 4.69999980926514 4.80000019073486 4.80000019073486 4.80000019073486 4.80000019073486 4.80000019073486 4.80000019073486 4.80000019073486 4.80000019073486 4.80000019073486 4.69999980926514 4.69999980926514 4.69999980926514 4.59999990463257 4.59999990463257 4.5 4.5 4.40000009536743 4.40000009536743 4.30000019073486 4.30000019073486 4.30000019073486 4.30000019073486 4.30000019073486 4.30000019073486 4.30000019073486 4.40000009536743 4.40000009536743 4.40000009536743 4.5 4.5 4.5 4.5 4.5 4.5 4.5 4.59999990463257 4.59999990463257 4.59999990463257 4.59999990463257 4.59999990463257 4.5 4.5 4.5 4.5 4.5 4.5 4.5 4.5 4.5 4.5 4.40000009536743 4.40000009536743 4.40000009536743 4.40000009536743 4.40000009536743 4.40000009536743 4.40000009536743 4.40000009536743 4.30000019073486 4.30000019073486 4.19999980926514 4.19999980926514 4.09999990463257 4.09999990463257 4 4 3.90000009536743 3.90000009536743 3.79999995231628 3.79999995231628 3.70000004768372 3.70000004768372 3.59999990463257 3.59999990463257 3.5 3.5 3.40000009536743 3.40000009536743 3.29999995231628 3.29999995231628 3.20000004768372 3.20000004768372 3.09999990463257 3.09999990463257 3 3 2.90000009536743 2.90000009536743 2.90000009536743 2.79999995231628 2.79999995231628 2.70000004768372 2.70000004768372 2.59999990463257 2.59999990463257 2.5 2.5 2.40000009536743 2.40000009536743 2.40000009536743 2.29999995231628 2.29999995231628 2.20000004768372 2.20000004768372 2.09999990463257 2.09999990463257 2 2 1.89999997615814 1.89999997615814 1.79999995231628 1.79999995231628 1.70000004768372 1.70000004768372 1.70000004768372 1.60000002384186 1.60000002384186 1.5 1.5 1.39999997615814 1.39999997615814 1.29999995231628 1.29999995231628 1.20000004768372 1.20000004768372 1.20000004768372 1.10000002384186 1.10000002384186 1 1 0.899999976158142 0.899999976158142 0.899999976158142 0.800000011920929 0.800000011920929 0.699999988079071 0.699999988079071 0.699999988079071 0.600000023841858 0.600000023841858 0.5 0.5 0.5 0.400000005960464 0.400000005960464 0.400000005960464 0.300000011920929 0.300000011920929 0.300000011920929 0.200000002980232 0.200000002980232 0.200000002980232 0.100000001490116 0.100000001490116 0.100000001490116 0.100000001490116 0.100000001490116 0.100000001490116 0.100000001490116 0.100000001490116 0.100000001490116 0.100000001490116 0.100000001490116 0.100000001490116 0.100000001490116 0.100000001490116 0.100000001490116 0.100000001490116 0.100000001490116 0.100000001490116 0.100000001490116 0.100000001490116 0.100000001490116 0.100000001490116 0.100000001490116 0.100000001490116 0.100000001490116 0.100000001490116 0.100000001490116 0.100000001490116 0.100000001490116 0.100000001490116 0.100000001490116 0.100000001490116 0.100000001490116 0.100000001490116 0.100000001490116 0.100000001490116 0.100000001490116 0.100000001490116 0.100000001490116 0.100000001490116 0.100000001490116 0.100000001490116 0.100000001490116 0.100000001490116 0.100000001490116 0.100000001490116 0.100000001490116 0.100000001490116 0.100000001490116 0.100000001490116 0.100000001490116 0.100000001490116 0.100000001490116 0.100000001490116 0.100000001490116 0.100000001490116 0.100000001490116 0.100000001490116 0.100000001490116 0.100000001490116 0.100000001490116 0.100000001490116 0.100000001490116 0.100000001490116 0.100000001490116 0.100000001490116 0.100000001490116 0.100000001490116 0.100000001490116 0.100000001490116 0.100000001490116 0.100000001490116 0.100000001490116 0.100000001490116 0.100000001490116 0.100000001490116 0.100000001490116 0.100000001490116
5.19999980926514 5.09999990463257 5.19999980926514 5.30000019073486 5.59999990463257 5.5 5.40000009536743 5.5 5.5 5.5 5.40000009536743 5.19999980926514 5 5 5.09999990463257 5.09999990463257 5 4.80000019073486 4.69999980926514 4.80000019073486 4.90000009536743 4.90000009536743 4.90000009536743 4.90000009536743 4.90000009536743 4.90000009536743 4.90000009536743 4.80000019073486 4.80000019073486 4.80000019073486 4.80000019073486 4.69999980926514 4.69999980926514 4.59999990463257 4.5 4.5 4.40000009536743 4.40000009536743 4.30000019073486 4.30000019073486 4.30000019073486 4.30000019073486 4.30000019073486 4.30000019073486 4.30000019073486 4.40000009536743 4.40000009536743 4.5 4.5 4.5 4.5 4.5 4.5 4.59999990463257 4.59999990463257 4.59999990463257 4.69999980926514 4.69999980926514 4.59999990463257 4.59999990463257 4.59999990463257 4.59999990463257 4.59999990463257 4.59999990463257 4.59999990463257 4.59999990463257 4.5 4.5 4.5 4.5 4.5 4.5 4.5 4.5 4.5 4.5 4.5 4.5 4.40000009536743 4.40000009536743 4.30000019073486 4.19999980926514 4.09999990463257 4.09999990463257 4.09999990463257 4 4 3.90000009536743 3.90000009536743 3.79999995231628 3.70000004768372 3.70000004768372 3.59999990463257 3.59999990463257 3.5 3.5 3.40000009536743 3.40000009536743 3.29999995231628 3.29999995231628 3.29999995231628 3.20000004768372 3.20000004768372 3.09999990463257 3.09999990463257 3 3 2.90000009536743 2.90000009536743 2.79999995231628 2.79999995231628 2.70000004768372 2.70000004768372 2.59999990463257 2.59999990463257 2.59999990463257 2.5 2.5 2.40000009536743 2.40000009536743 2.29999995231628 2.29999995231628 2.20000004768372 2.20000004768372 2.09999990463257 2.09999990463257 2 2 2 1.89999997615814 1.89999997615814 1.79999995231628 1.79999995231628 1.70000004768372 1.70000004768372 1.60000002384186 1.60000002384186 1.5 1.5 1.39999997615814 1.39999997615814 1.39999997615814 1.29999995231628 1.29999995231628 1.20000004768372 1.20000004768372 1.10000002384186 1.10000002384186 1 1 1 0.899999976158142 0.899999976158142 0.800000011920929 0.800000011920929 0.699999988079071 0.699999988079071 0.699999988079071 0.600000023841858 0.600000023841858 0.600000023841858 0.5 0.5 0.400000005960464 0.400000005960464 0.400000005960464 0.300000011920929 0.300000011920929 0.300000011920929 0.200000002980232 0.200000002980232 0.200000002980232 0.100000001490116 0.100000001490116 0.100000001490116 0.100000001490116 0.100000001490116 0.100000001490116 0.100000001490116 0.100000001490116 0.100000001490116 0.100000001490116 0.100000001490116 0.100000001490116 0.100000001490116 0.100000001490116 0.100000001490116 0.100000001490116 0.100000001490116 0.100000001490116 0.100000001490116 0.100000001490116 0.100000001490116 0.100000001490116 0.100000001490116 0.100000001490116 0.100000001490116 0.100000001490116 0.100000001490116 0.100000001490116 0.100000001490116 0.100000001490116 0.100000001490116 0.100000001490116 0.100000001490116 0.100000001490116 0.100000001490116 0.100000001490116 0.100000001490116 0.100000001490116 0.100000001490116 0.100000001490116 0.100000001490116 0.100000001490116 0.100000001490116 0.100000001490116 0.100000001490116 0.100000001490116 0.100000001490116 0.100000001490116 0.100000001490116 0.100000001490116 0.100000001490116 0.100000001490116 0.100000001490116 0.100000001490116 0.100000001490116 0.100000001490116 0.100000001490116 0.100000001490116 0.100000001490116 0.100000001490116 0.100000001490116 0.100000001490116 0.100000001490116 0.100000001490116 0.100000001490116 0.100000001490116 0.100000001490116 0.100000001490116 0.100000001490116 0.100000001490116 0.100000001490116 0.100000001490116 0.100000001490116 0.100000001490116 0.100000001490116 0.100000001490116 0.100000001490116 0.100000001490116
5.30000019073486 5.19999980926514 5.19999980926514 5.09999990463257 5.40000009536743 5.40000009536743 5.40000009536743 5.40000009536743 5.5 5.5 5.30000019073486 5 4.90000009536743 5 5.19999980926514 5 5 4.90000009536743 4.90000009536743 4.90000009536743 5 5 5 5 5 5 4.90000009536743 4.90000009536743 4.90000009536743 4.90000009536743 4.90000009536743 4.80000019073486 4.69999980926514 4.59999990463257 4.59999990463257 4.5 4.40000009536743 4.40000009536743 4.30000019073486 4.30000019073486 4.19999980926514 4.30000019073486 4.30000019073486 4.30000019073486 4.30000019073486 4.30000019073486 4.5 4.59999990463257 4.59999990463257 4.59999990463257 4.59999990463257 4.5 4.5 4.59999990463257 4.59999990463257 4.69999980926514 4.69999980926514 4.69999980926514 4.69999980926514 4.59999990463257 4.59999990463257 4.59999990463257 4.59999990463257 4.59999990463257 4.59999990463257 4.59999990463257 4.59999990463257 4.5 4.5 4.5 4.5 4.5 4.5 4.5 4.5 4.5 4.5 4.59999990463257 4.5 4.5 4.40000009536743 4.19999980926514 4.19999980926514 4.09999990463257 4.09999990463257 4.09999990463257 4 4 3.90000009536743 3.79999995231628 3.79999995231628 3.70000004768372 3.70000004768372 3.59999990463257 3.59999990463257 3.5 3.5 3.40000009536743 3.40000009536743 3.29999995231628 3.29999995231628 3.20000004768372 3.20000004768372 3.09999990463257 3.09999990463257 3 3 3 2.90000009536743 2.90000009536743 2.79999995231628 2.79999995231628 2.70000004768372 2.70000004768372 2.59999990463257 2.59999990463257 2.5 2.5 2.40000009536743 2.40000009536743 2.29999995231628 2.29999995231628 2.29999995231628 2.20000004768372 2.20000004768372 2.09999990463257 2.09999990463257 2 2 1.89999997615814 1.89999997615814 1.79999995231628 1.79999995231628 1.70000004768372 1.70000004768372 1.60000002384186 1.60000002384186 1.5 1.5 1.5 1.39999997615814 1.39999997615814 1.29999995231628 1.29999995231628 1.20000004768372 1.20000004768372 1.10000002384186 1.10000002384186 1.10000002384186 1 1 0.899999976158142 0.899999976158142 0.800000011920929 0.800000011920929 0.800000011920929 0.699999988079071 0.699999988079071 0.600000023841858 0.600000023841858 0.600000023841858 0.5 0.5 0.400000005960464 0.400000005960464 0.400000005960464 0.300000011920929 0.300000011920929 0.300000011920929 0.200000002980232 0.200000002980232 0.200000002980232 0.100000001490116 0.100000001490116 0.100000001490116 0.100000001490116 0.100000001490116 0.100000001490116 0.100000001490116 0.100000001490116 0.100000001490116 0.100000001490116 0.100000001490116 0.100000001490116 0.100000001490116 0.100000001490116 0.100000001490116 0.100000001490116 0.100000001490116 0.100000001490116 0.100000001490116 0.100000001490116 0.100000001490116 0.100000001490116 0.100000001490116 0.100000001490116 0.100000001490116 0.100000001490116 0.100000001490116 0.100000001490116 0.100000001490116 0.100000001490116 0.100000001490116 0.100000001490116 0.100000001490116 0.100000001490116 0.100000001490116 0.100000001490116 0.100000001490116 0.100000001490116 0.100000001490116 0.100000001490116 0.100000001490116 0.100000001490116 0.100000001490116 0.100000001490116 0.100000001490116 0.100000001490116 0.100000001490116 0.100000001490116 0.100000001490116 0.100000001490116 0.100000001490116 0.100000001490116 0.100000001490116 0.100000001490116 0.100000001490116 0.100000001490116 0.100000001490116 0.100000001490116 0.100000001490116 0.100000001490116 0.100000001490116 0.100000001490116 0.100000001490116 0.100000001490116 0.100000001490116 0.100000001490116 0.100000001490116 0.100000001490116 0.100000001490116 0.100000001490116 0.100000001490116 0.100000001490116 0.100000001490116 0.100000001490116 0.100000001490116 0.100000001490116 0.100000001490116 0.100000001490116
5.09999990463257 5 5.09999990463257 5.09999990463257 5.30000019073486 5.19999980926514 5.30000019073486 5.19999980926514 5.30000019073486 5.19999980926514 5.09999990463257 4.90000009536743 4.90000009536743 4.90000009536743 4.90000009536743 4.80000019073486 5 5 5 5 5.09999990463257 5 5.09999990463257 5 5 5.09999990463257 5 4.90000009536743 4.90000009536743 4.90000009536743 5 4.90000009536743 4.80000019073486 4.69999980926514 4.59999990463257 4.5 4.40000009536743 4.40000009536743 4.30000019073486 4.19999980926514 4.19999980926514 4.19999980926514 4.30000019073486 4.30000019073486 4.30000019073486 4.30000019073486 4.5 4.69999980926514 4.69999980926514 4.69999980926514 4.59999990463257 4.59999990463257 4.5 4.59999990463257 4.69999980926514 4.80000019073486 4.80000019073486 4.90000009536743 4.80000019073486 4.69999980926514 4.59999990463257 4.59999990463257 4.69999980926514 4.69999980926514 4.69999980926514 4.69999980926514 4.59999990463257 4.59999990463257 4.59999990463257 4.59999990463257 4.59999990463257 4.59999990463257 4.59999990463257 4.59999990463257 4.5 4.59999990463257 4.59999990463257 4.69999980926514 4.69999980926514 4.59999990463257 4.40000009536743 4.19999980926514 4.19999980926514 4.09999990463257 4.09999990463257 4.09999990463257 4.09999990463257 4 3.90000009536743 3.90000009536743 3.79999995231628 3.79999995231628 3.70000004768372 3.70000004768372 3.59999990463257 3.59999990463257 3.5 3.5 3.40000009536743 3.40000009536743 3.29999995231628 3.29999995231628 3.20000004768372 3.20000004768372 3.09999990463257 3.09999990463257 3 3 2.90000009536743 2.90000009536743 2.79999995231628 2.79999995231628 2.70000004768372 2.70000004768372 2.59999990463257 2.59999990463257 2.59999990463257 2.5 2.5 2.40000009536743 2.40000009536743 2.29999995231628 2.29999995231628 2.20000004768372 2.20000004768372 2.09999990463257 2.09999990463257 2 2 1.89999997615814 1.89999997615814 1.79999995231628 1.79999995231628 1.79999995231628 1.70000004768372 1.70000004768372 1.60000002384186 1.60000002384186 1.5 1.5 1.39999997615814 1.39999997615814 1.29999995231628 1.29999995231628 1.20000004768372 1.20000004768372 1.10000002384186 1.10000002384186 1.10000002384186 1 1 0.899999976158142 0.899999976158142 0.800000011920929 0.800000011920929 0.800000011920929 0.699999988079071 0.699999988079071 0.600000023841858 0.600000023841858 0.600000023841858 0.5 0.5 0.5 0.400000005960464 0.400000005960464 0.300000011920929 0.300000011920929 0.300000011920929 0.200000002980232 0.200000002980232 0.200000002980232 0.100000001490116 0.100000001490116 0.100000001490116 0.100000001490116 0.100000001490116 0.100000001490116 0.100000001490116 0.100000001490116 0.100000001490116 0.100000001490116 0.100000001490116 0.100000001490116 0.100000001490116 0.100000001490116 0.100000001490116 0.100000001490116 0.100000001490116 0.100000001490116 0.100000001490116 0.100000001490116 0.100000001490116 0.100000001490116 0.100000001490116 0.100000001490116 0.100000001490116 0.100000001490116 0.100000001490116 0.100000001490116 0.100000001490116 0.100000001490116 0.100000001490116 0.100000001490116 0.100000001490116 0.100000001490116 0.100000001490116 0.100000001490116 0.100000001490116 0.100000001490116 0.100000001490116 0.100000001490116 0.100000001490116 0.100000001490116 0.100000001490116 0.100000001490116 0.100000001490116 0.100000001490116 0.100000001490116 0.100000001490116 0.100000001490116 0.100000001490116 0.100000001490116 0.100000001490116 0.100000001490116 0.100000001490116 0.100000001490116 0.100000001490116 0.100000001490116 0.100000001490116 0.100000001490116 0.100000001490116 0.100000001490116 0.100000001490116 0.100000001490116 0.100000001490116 0.100000001490116 0.100000001490116 0.100000001490116 0.100000001490116 0.100000001490116 0.100000001490116 0.100000001490116 0.100000001490116 0.100000001490116 0.100000001490116 0.100000001490116 0.100000001490116 0.100000001490116 0.100000001490116
4.90000009536743 4.80000019073486 4.90000009536743 5.09999990463257 5.19999980926514 5.19999980926514 5.5 5.30000019073486 5 4.80000019073486 4.90000009536743 5 4.90000009536743 4.90000009536743 4.90000009536743 5 5.30000019073486 5.19999980926514 5.09999990463257 4.90000009536743 5 5 5.19999980926514 5 5.09999990463257 5.19999980926514 5 4.90000009536743 4.80000019073486 5 5.09999990463257 5 4.80000019073486 4.69999980926514 4.59999990463257 4.5 4.40000009536743 4.40000009536743 4.30000019073486 4.19999980926514 4.19999980926514 4.19999980926514 4.30000019073486 4.30000019073486 4.30000019073486 4.19999980926514 4.5 4.80000019073486 4.80000019073486 4.69999980926514 4.69999980926514 4.59999990463257 4.5 4.59999990463257 4.69999980926514 4.80000019073486 4.90000009536743 5 4.80000019073486 4.69999980926514 4.69999980926514 4.69999980926514 4.69999980926514 4.69999980926514 4.80000019073486 4.69999980926514 4.69999980926514 4.59999990463257 4.59999990463257 4.59999990463257 4.59999990463257 4.59999990463257 4.69999980926514 4.59999990463257 4.5 4.59999990463257 4.69999980926514 4.80000019073486 4.80000019073486 4.69999980926514 4.5 4.19999980926514 4.19999980926514 4.19999980926514 4.19999980926514 4.09999990463257 4.09999990463257 4 4 3.90000009536743 3.79999995231628 3.79999995231628 3.70000004768372 3.70000004768372 3.59999990463257 3.59999990463257 3.5 3.5 3.40000009536743 3.40000009536743 3.29999995231628 3.29999995231628 3.20000004768372 3.20000004768372 3.09999990463257 3.09999990463257 3 3 3 2.90000009536743 2.90000009536743 2.79999995231628 2.79999995231628 2.70000004768372 2.70000004768372 2.59999990463257 2.59999990463257 2.5 2.5 2.40000009536743 2.40000009536743 2.29999995231628 2.29999995231628 2.20000004768372 2.20000004768372 2.09999990463257 2.09999990463257 2.09999990463257 2 2 1.89999997615814 1.89999997615814 1.79999995231628 1.79999995231628 1.70000004768372 1.70000004768372 1.60000002384186 1.60000002384186 1.5 1.5 1.39999997615814 1.39999997615814 1.29999995231628 1.29999995231628 1.29999995231628 1.20000004768372 1.20000004768372 1.10000002384186 1.10000002384186 1 1 0.899999976158142 0.899999976158142 0.899999976158142 0.800000011920929 0.800000011920929 0.699999988079071 0.699999988079071 0.600000023841858 0.600000023841858 0.600000023841858 0.5 0.5 0.5 0.400000005960464 0.400000005960464 0.300000011920929 0.300000011920929 0.300000011920929 0.200000002980232 0.200000002980232 0.200000002980232 0.100000001490116 0.100000001490116 0.100000001490116 0.100000001490116 0.100000001490116 0.100000001490116 0.100000001490116 0.100000001490116 0.100000001490116 0.100000001490116 0.100000001490116 0.100000001490116 0.100000001490116 0.100000001490116 0.100000001490116 0.100000001490116 0.100000001490116 0.100000001490116 0.100000001490116 0.100000001490116 0.100000001490116 0.100000001490116 0.100000001490116 0.100000001490116 0.100000001490116 0.100000001490116 0.100000001490116 0.100000001490116 0.100000001490116 0.100000001490116 0.100000001490116 0.100000001490116 0.100000001490116 0.100000001490116 0.100000001490116 0.100000001490116 0.100000001490116 0.100000001490116 0.100000001490116 0.100000001490116 0.100000001490116 0.100000001490116 0.100000001490116 0.100000001490116 0.100000001490116 0.100000001490116 0.100000001490116 0.100000001490116 0.100000001490116 0.100000001490116 0.100000001490116 0.100000001490116 0.100000001490116 0.100000001490116 0.100000001490116 0.100000001490116 0.100000001490116 0.100000001490116 0.100000001490116 0.100000001490116 0.100000001490116 0.100000001490116 0.100000001490116 0.100000001490116 0.100000001490116 0.100000001490116 0.100000001490116 0.100000001490116 0.100000001490116 0.100000001490116 0.100000001490116 0.100000001490116 0.100000001490116 0.100000001490116 0.100000001490116 0.100000001490116 0.100000001490116 0.100000001490116
4.69999980926514 4.59999990463257 4.69999980926514 5 4.90000009536743 5 5.09999990463257 5.09999990463257 5 4.90000009536743 5 5.09999990463257 5.19999980926514 5.09999990463257 5.09999990463257 5.19999980926514 5.30000019073486 5.19999980926514 5.09999990463257 5.09999990463257 5.09999990463257 5.09999990463257 5.09999990463257 5 5.09999990463257 5.09999990463257 5 4.90000009536743 4.90000009536743 5 5.09999990463257 5 4.80000019073486 4.69999980926514 4.59999990463257 4.59999990463257 4.5 4.40000009536743 4.40000009536743 4.30000019073486 4.30000019073486 4.30000019073486 4.40000009536743 4.40000009536743 4.40000009536743 4.40000009536743 4.59999990463257 4.80000019073486 4.80000019073486 4.80000019073486 4.69999980926514 4.59999990463257 4.59999990463257 4.69999980926514 4.69999980926514 4.80000019073486 4.90000009536743 4.90000009536743 4.80000019073486 4.69999980926514 4.69999980926514 4.69999980926514 4.69999980926514 4.80000019073486 4.80000019073486 4.80000019073486 4.69999980926514 4.69999980926514 4.59999990463257 4.59999990463257 4.69999980926514 4.69999980926514 4.59999990463257 4.59999990463257 4.5 4.59999990463257 4.69999980926514 4.80000019073486 4.80000019073486 4.69999980926514 4.5 4.30000019073486 4.19999980926514 4.19999980926514 4.19999980926514 4.19999980926514 4.09999990463257 4 4 3.90000009536743 3.90000009536743 3.79999995231628 3.79999995231628 3.70000004768372 3.70000004768372 3.59999990463257 3.59999990463257 3.5 3.5 3.40000009536743 3.40000009536743 3.29999995231628 3.29999995231628 3.20000004768372 3.20000004768372 3.09999990463257 3.09999990463257 3 3 2.90000009536743 2.90000009536743 2.79999995231628 2.79999995231628 2.70000004768372 2.70000004768372 2.59999990463257 2.59999990463257 2.59999990463257 2.5 2.5 2.40000009536743 2.40000009536743 2.29999995231628 2.29999995231628 2.20000004768372 2.20000004768372 2.09999990463257 2.09999990463257 2 2 1.89999997615814 1.89999997615814 1.79999995231628 1.79999995231628 1.70000004768372 1.70000004768372 1.60000002384186 1.60000002384186 1.5 1.5 1.39999997615814 1.39999997615814 1.39999997615814 1.29999995231628 1.29999995231628 1.20000004768372 1.20000004768372 1.10000002384186 1.10000002384186 1 1 0.899999976158142 0.899999976158142 0.899999976158142 0.800000011920929 0.800000011920929 0.699999988079071 0.699999988079071 0.699999988079071 0.600000023841858 0.600000023841858 0.5 0.5 0.5 0.400000005960464 0.400000005960464 0.300000011920929 0.300000011920929 0.300000011920929 0.200000002980232 0.200000002980232 0.200000002980232 0.100000001490116 0.100000001490116 0.100000001490116 0.100000001490116 0.100000001490116 0.100000001490116 0.100000001490116 0.100000001490116 0.100000001490116 0.100000001490116 0.100000001490116 0.100000001490116 0.100000001490116 0.100000001490116 0.100000001490116 0.100000001490116 0.100000001490116 0.100000001490116 0.100000001490116 0.100000001490116 0.100000001490116 0.100000001490116 0.100000001490116 0.100000001490116 0.100000001490116 0.100000001490116 0.100000001490116 0.100000001490116 0.100000001490116 0.100000001490116 0.100000001490116 0.100000001490116 0.100000001490116 0.100000001490116 0.100000001490116 0.100000001490116 0.100000001490116 0.100000001490116 0.100000001490116 0.100000001490116 0.100000001490116 0.100000001490116 0.100000001490116 0.100000001490116 0.100000001490116 0.100000001490116 0.100000001490116 0.100000001490116 0.100000001490116 0.100000001490116 0.100000001490116 0.100000001490116 0.100000001490116 0.100000001490116 0.100000001490116 0.100000001490116 0.100000001490116 0.100000001490116 0.100000001490116 0.100000001490116 0.100000001490116 0.100000001490116 0.100000001490116 0.100000001490116 0.100000001490116 0.100000001490116 0.100000001490116 0.100000001490116 0.100000001490116 0.100000001490116 0.100000001490116 0.100000001490116 0.100000001490116 0.100000001490116 0.100000001490116 0.100000001490116 0.100000001490116 0.100000001490116
4.69999980926514 4.69999980926514 4.80000019073486 5 4.80000019073486 4.80000019073486 4.80000019073486 4.80000019073486 5 5 5.30000019073486 5.40000009536743 5.5 5.30000019073486 5.30000019073486 5.19999980926514 5.30000019073486 5.19999980926514 5.19999980926514 5.09999990463257 5.19999980926514 5.09999990463257 5 5 5 5 5 4.90000009536743 4.90000009536743 5 5 4.90000009536743 4.90000009536743 4.80000019073486 4.69999980926514 4.59999990463257 4.59999990463257 4.5 4.5 4.40000009536743 4.40000009536743 4.40000009536743 4.40000009536743 4.5 4.5 4.59999990463257 4.69999980926514 4.80000019073486 4.80000019073486 4.80000019073486 4.80000019073486 4.69999980926514 4.69999980926514 4.69999980926514 4.80000019073486 4.80000019073486 4.80000019073486 4.80000019073486 4.80000019073486 4.69999980926514 4.69999980926514 4.80000019073486 4.80000019073486 4.80000019073486 4.80000019073486 4.80000019073486 4.80000019073486 4.69999980926514 4.69999980926514 4.69999980926514 4.69999980926514 4.69999980926514 4.59999990463257 4.5 4.5 4.5 4.59999990463257 4.69999980926514 4.80000019073486 4.69999980926514 4.5 4.40000009536743 4.30000019073486 4.19999980926514 4.19999980926514 4.19999980926514 4.09999990463257 4.09999990463257 4 3.90000009536743 3.90000009536743 3.79999995231628 3.79999995231628 3.70000004768372 3.70000004768372 3.59999990463257 3.59999990463257 3.5 3.5 3.40000009536743 3.40000009536743 3.29999995231628 3.29999995231628 3.20000004768372 3.20000004768372 3.09999990463257 3.09999990463257 3.09999990463257 3 3 2.90000009536743 2.90000009536743 2.79999995231628 2.79999995231628 2.70000004768372 2.70000004768372 2.59999990463257 2.59999990463257 2.5 2.5 2.40000009536743 2.40000009536743 2.29999995231628 2.29999995231628 2.20000004768372 2.20000004768372 2.09999990463257 2.09999990463257 2 2 1.89999997615814 1.89999997615814 1.79999995231628 1.79999995231628 1.70000004768372 1.70000004768372 1.70000004768372 1.60000002384186 1.60000002384186 1.5 1.5 1.39999997615814 1.39999997615814 1.29999995231628 1.29999995231628 1.20000004768372 1.20000004768372 1.10000002384186 1.10000002384186 1 1 1 0.899999976158142 0.899999976158142 0.800000011920929 0.800000011920929 0.699999988079071 0.699999988079071 0.699999988079071 0.600000023841858 0.600000023841858 0.5 0.5 0.5 0.400000005960464 0.400000005960464 0.300000011920929 0.300000011920929 0.300000011920929 0.200000002980232 0.200000002980232 0.200000002980232 0.100000001490116 0.100000001490116 0.100000001490116 0.100000001490116 0.100000001490116 0.100000001490116 0.100000001490116 0.100000001490116 0.100000001490116 0.100000001490116 0.100000001490116 0.100000001490116 0.100000001490116 0.100000001490116 0.100000001490116 0.100000001490116 0.100000001490116 0.100000001490116 0.100000001490116 0.100000001490116 0.100000001490116 0.100000001490116 0.100000001490116 0.100000001490116 0.100000001490116 0.100000001490116 0.100000001490116 0.100000001490116 0.100000001490116 0.100000001490116 0.100000001490116 0.100000001490116 0.100000001490116 0.100000001490116 0.100000001490116 0.100000001490116 0.100000001490116 0.100000001490116 0.100000001490116 0.100000001490116 0.100000001490116 0.100000001490116 0.100000001490116 0.100000001490116 0.100000001490116 0.100000001490116 0.100000001490116 0.100000001490116 0.100000001490116 0.100000001490116 0.100000001490116 0.100000001490116 0.100000001490116 0.100000001490116 0.100000001490116 0.100000001490116 0.100000001490116 0.100000001490116 0.100000001490116 0.100000001490116 0.100000001490116 0.100000001490116 0.100000001490116 0.100000001490116 0.100000001490116 0.100000001490116 0.100000001490116 0.100000001490116 0.100000001490116 0.100000001490116 0.100000001490116 0.100000001490116 0.100000001490116 0.100000001490116 0.100000001490116 0.100000001490116 0.100000001490116 0.100000001490116
5.30000019073486 5.09999990463257 5.09999990463257 5.09999990463257 4.90000009536743 4.80000019073486 4.5 4.69999980926514 4.80000019073486 4.69999980926514 5.19999980926514 5.5 5.5 5.5 5.40000009536743 5.30000019073486 5.30000019073486 5.19999980926514 5.09999990463257 5 5.09999990463257 5 4.90000009536743 4.90000009536743 5 5 5 4.90000009536743 4.90000009536743 4.90000009536743 4.90000009536743 4.90000009536743 4.90000009536743 4.80000019073486 4.69999980926514 4.69999980926514 4.59999990463257 4.59999990463257 4.5 4.5 4.5 4.5 4.5 4.59999990463257 4.59999990463257 4.69999980926514 4.80000019073486 4.80000019073486 4.90000009536743 4.80000019073486 4.80000019073486 4.80000019073486 4.80000019073486 4.80000019073486 4.80000019073486 4.80000019073486 4.80000019073486 4.80000019073486 4.80000019073486 4.69999980926514 4.80000019073486 4.80000019073486 4.80000019073486 4.90000009536743 4.90000009536743 4.80000019073486 4.80000019073486 4.80000019073486 4.80000019073486 4.69999980926514 4.69999980926514 4.69999980926514 4.59999990463257 4.40000009536743 4.40000009536743 4.5 4.5 4.69999980926514 4.90000009536743 4.69999980926514 4.59999990463257 4.40000009536743 4.30000019073486 4.30000019073486 4.19999980926514 4.19999980926514 4.09999990463257 4.09999990463257 4 4 3.90000009536743 3.90000009536743 3.79999995231628 3.70000004768372 3.70000004768372 3.59999990463257 3.59999990463257 3.59999990463257 3.5 3.5 3.40000009536743 3.40000009536743 3.29999995231628 3.29999995231628 3.20000004768372 3.20000004768372 3.09999990463257 3.09999990463257 3 3 2.90000009536743 2.90000009536743 2.79999995231628 2.79999995231628 2.70000004768372 2.70000004768372 2.59999990463257 2.59999990463257 2.5 2.5 2.5 2.40000009536743 2.40000009536743 2.29999995231628 2.29999995231628 2.20000004768372 2.20000004768372 2.09999990463257 2.09999990463257 2 2 1.89999997615814 1.89999997615814 1.79999995231628 1.79999995231628 1.70000004768372 1.70000004768372 1.60000002384186 1.60000002384186 1.5 1.5 1.39999997615814 1.39999997615814 1.29999995231628 1.29999995231628 1.20000004768372 1.20000004768372 1.10000002384186 1.10000002384186 1.10000002384186 1 1 0.899999976158142 0.899999976158142 0.800000011920929 0.800000011920929 0.699999988079071 0.699999988079071 0.699999988079071 0.600000023841858 0.600000023841858 0.5 0.5 0.5 0.400000005960464 0.400000005960464 0.400000005960464 0.300000011920929 0.300000011920929 0.200000002980232 0.200000002980232 0.200000002980232 0.100000001490116 0.100000001490116 0.100000001490116 0.100000001490116 0.100000001490116 0.100000001490116 0.100000001490116 0.100000001490116 0.100000001490116 0.100000001490116 0.100000001490116 0.100000001490116 0.100000001490116 0.100000001490116 0.100000001490116 0.100000001490116 0.100000001490116 0.100000001490116 0.100000001490116 0.100000001490116 0.100000001490116 0.100000001490116 0.100000001490116 0.100000001490116 0.100000001490116 0.100000001490116 0.100000001490116 0.100000001490116 0.100000001490116 0.100000001490116 0.100000001490116 0.100000001490116 0.100000001490116 0.100000001490116 0.100000001490116 0.100000001490116 0.100000001490116 0.100000001490116 0.100000001490116 0.100000001490116 0.100000001490116 0.100000001490116 0.100000001490116 0.100000001490116 0.100000001490116 0.100000001490116 0.100000001490116 0.100000001490116 0.100000001490116 0.100000001490116 0.100000001490116 0.100000001490116 0.100000001490116 0.100000001490116 0.100000001490116 0.100000001490116 0.100000001490116 0.100000001490116 0.100000001490116 0.100000001490116 0.100000001490116 0.100000001490116 0.100000001490116 0.100000001490116 0.100000001490116 0.100000001490116 0.100000001490116 0.100000001490116 0.100000001490116 0.100000001490116 0.100000001490116 0.100000001490116 0.100000001490116 0.100000001490116 0.100000001490116 0.100000001490116 0.100000001490116 0.100000001490116
5.30000019073486 5.19999980926514 5.30000019073486 5.30000019073486 5.09999990463257 5.19999980926514 4.90000009536743 4.90000009536743 4.90000009536743 5.09999990463257 5.40000009536743 5.59999990463257 5.59999990463257 5.5 5.40000009536743 5.30000019073486 5.30000019073486 5.19999980926514 5.09999990463257 5.09999990463257 5.09999990463257 5 4.90000009536743 4.90000009536743 4.90000009536743 5 4.90000009536743 4.90000009536743 4.90000009536743 4.90000009536743 4.90000009536743 4.90000009536743 4.90000009536743 4.80000019073486 4.80000019073486 4.69999980926514 4.69999980926514 4.69999980926514 4.59999990463257 4.59999990463257 4.59999990463257 4.59999990463257 4.59999990463257 4.69999980926514 4.80000019073486 4.80000019073486 4.90000009536743 4.90000009536743 4.90000009536743 4.90000009536743 4.80000019073486 4.80000019073486 4.80000019073486 4.80000019073486 4.90000009536743 4.80000019073486 4.80000019073486 4.80000019073486 4.69999980926514 4.69999980926514 4.80000019073486 4.80000019073486 4.90000009536743 4.90000009536743 4.90000009536743 4.90000009536743 4.90000009536743 4.80000019073486 4.80000019073486 4.80000019073486 4.80000019073486 4.69999980926514 4.5 4.30000019073486 4.40000009536743 4.40000009536743 4.5 4.59999990463257 4.69999980926514 4.69999980926514 4.59999990463257 4.5 4.40000009536743 4.30000019073486 4.19999980926514 4.19999980926514 4.09999990463257 4.09999990463257 4 4 3.90000009536743 3.90000009536743 3.79999995231628 3.79999995231628 3.70000004768372 3.70000004768372 3.59999990463257 3.59999990463257 3.5 3.5 3.40000009536743 3.40000009536743 3.29999995231628 3.29999995231628 3.20000004768372 3.20000004768372 3.09999990463257 3.09999990463257 3.09999990463257 3 3 2.90000009536743 2.90000009536743 2.79999995231628 2.79999995231628 2.70000004768372 2.70000004768372 2.59999990463257 2.59999990463257 2.5 2.5 2.40000009536743 2.40000009536743 2.29999995231628 2.29999995231628 2.20000004768372 2.20000004768372 2.09999990463257 2.09999990463257 2 2 1.89999997615814 1.89999997615814 1.79999995231628 1.79999995231628 1.70000004768372 1.70000004768372 1.60000002384186 1.60000002384186 1.5 1.5 1.39999997615814 1.39999997615814 1.29999995231628 1.29999995231628 1.20000004768372 1.20000004768372 1.20000004768372 1.10000002384186 1.10000002384186 1 1 0.899999976158142 0.899999976158142 0.800000011920929 0.800000011920929 0.800000011920929 0.699999988079071 0.699999988079071 0.600000023841858 0.600000023841858 0.5 0.5 0.5 0.400000005960464 0.400000005960464 0.400000005960464 0.300000011920929 0.300000011920929 0.200000002980232 0.200000002980232 0.200000002980232 0.100000001490116 0.100000001490116 0.100000001490116 0.100000001490116 0.100000001490116 0.100000001490116 0.100000001490116 0.100000001490116 0.100000001490116 0.100000001490116 0.100000001490116 0.100000001490116 0.100000001490116 0.100000001490116 0.100000001490116 0.100000001490116 0.100000001490116 0.100000001490116 0.100000001490116 0.100000001490116 0.100000001490116 0.100000001490116 0.100000001490116 0.100000001490116 0.100000001490116 0.100000001490116 0.100000001490116 0.100000001490116 0.100000001490116 0.100000001490116 0.100000001490116 0.100000001490116 0.100000001490116 0.100000001490116 0.100000001490116 0.100000001490116 0.100000001490116 0.100000001490116 0.100000001490116 0.100000001490116 0.100000001490116 0.100000001490116 0.100000001490116 0.100000001490116 0.100000001490116 0.100000001490116 0.100000001490116 0.100000001490116 0.100000001490116 0.100000001490116 0.100000001490116 0.100000001490116 0.100000001490116 0.100000001490116 0.100000001490116 0.100000001490116 0.100000001490116 0.100000001490116 0.100000001490116 0.100000001490116 0.100000001490116 0.100000001490116 0.100000001490116 0.100000001490116 0.100000001490116 0.100000001490116 0.100000001490116 0.100000001490116 0.100000001490116 0.100000001490116 0.100000001490116 0.100000001490116 0.100000001490116 0.100000001490116 0.100000001490116 0.100000001490116 0.100000001490116 0.100000001490116
5.09999990463257 5.19999980926514 5.30000019073486 5.5 5.40000009536743 5.40000009536743 5.30000019073486 5.19999980926514 5.09999990463257 5.40000009536743 5.59999990463257 5.80000019073486 5.69999980926514 5.5 5.40000009536743 5.30000019073486 5.19999980926514 5.19999980926514 5.19999980926514 5.09999990463257 5.09999990463257 5.09999990463257 5 4.90000009536743 5 5 4.90000009536743 4.80000019073486 4.90000009536743 4.90000009536743 5 4.90000009536743 4.90000009536743 4.90000009536743 4.80000019073486 4.80000019073486 4.80000019073486 4.69999980926514 4.69999980926514 4.69999980926514 4.69999980926514 4.69999980926514 4.69999980926514 4.80000019073486 4.90000009536743 5 5 5 5 4.90000009536743 4.80000019073486 4.80000019073486 4.80000019073486 4.90000009536743 4.90000009536743 4.90000009536743 4.80000019073486 4.69999980926514 4.69999980926514 4.69999980926514 4.69999980926514 4.80000019073486 4.90000009536743 5 4.90000009536743 4.90000009536743 4.90000009536743 4.80000019073486 4.80000019073486 4.80000019073486 4.69999980926514 4.69999980926514 4.5 4.40000009536743 4.40000009536743 4.5 4.5 4.59999990463257 4.59999990463257 4.59999990463257 4.5 4.40000009536743 4.40000009536743 4.30000019073486 4.19999980926514 4.19999980926514 4.09999990463257 4.09999990463257 4 4 3.90000009536743 3.90000009536743 3.79999995231628 3.79999995231628 3.70000004768372 3.70000004768372 3.59999990463257 3.59999990463257 3.5 3.5 3.5 3.40000009536743 3.40000009536743 3.29999995231628 3.29999995231628 3.20000004768372 3.20000004768372 3.09999990463257 3.09999990463257 3 3 2.90000009536743 2.90000009536743 2.79999995231628 2.79999995231628 2.70000004768372 2.70000004768372 2.59999990463257 2.59999990463257 2.5 2.5 2.40000009536743 2.40000009536743 2.29999995231628 2.29999995231628 2.20000004768372 2.20000004768372 2.09999990463257 2.09999990463257 2 2 1.89999997615814 1.89999997615814 1.79999995231628 1.79999995231628 1.70000004768372 1.70000004768372 1.60000002384186 1.60000002384186 1.5 1.5 1.39999997615814 1.39999997615814 1.39999997615814 1.29999995231628 1.29999995231628 1.20000004768372 1.20000004768372 1.10000002384186 1.10000002384186 1 1 0.899999976158142 0.899999976158142 0.800000011920929 0.800000011920929 0.800000011920929 0.699999988079071 0.699999988079071 0.600000023841858 0.600000023841858 0.5 0.5 0.5 0.400000005960464 0.400000005960464 0.400000005960464 0.300000011920929 0.300000011920929 0.200000002980232 0.200000002980232 0.200000002980232 0.200000002980232 0.100000001490116 0.100000001490116 0.100000001490116 0.100000001490116 0.100000001490116 0.100000001490116 0.100000001490116 0.100000001490116 0.100000001490116 0.100000001490116 0.100000001490116 0.100000001490116 0.100000001490116 0.100000001490116 0.100000001490116 0.100000001490116 0.100000001490116 0.100000001490116 0.100000001490116 0.100000001490116 0.100000001490116 0.100000001490116 0.100000001490116 0.100000001490116 0.100000001490116 0.100000001490116 0.100000001490116 0.100000001490116 0.100000001490116 0.100000001490116 0.100000001490116 0.100000001490116 0.100000001490116 0.100000001490116 0.100000001490116 0.100000001490116 0.100000001490116 0.100000001490116 0.100000001490116 0.100000001490116 0.100000001490116 0.100000001490116 0.100000001490116 0.100000001490116 0.100000001490116 0.100000001490116 0.100000001490116 0.100000001490116 0.100000001490116 0.100000001490116 0.100000001490116 0.100000001490116 0.100000001490116 0.100000001490116 0.100000001490116 0.100000001490116 0.100000001490116 0.100000001490116 0.100000001490116 0.100000001490116 0.100000001490116 0.100000001490116 0.100000001490116 0.100000001490116 0.100000001490116 0.100000001490116 0.100000001490116 0.100000001490116 0.100000001490116 0.100000001490116 0.100000001490116 0.100000001490116 0.100000001490116 0.100000001490116 0.100000001490116 0.100000001490116 0.100000001490116
